ply
format ascii 1.0
comment VCGLIB generated
element vertex 1974
property float x
property float y
property float z
property uchar red
property uchar green
property uchar blue
element face 0
property list uchar int vertex_indices
end_header
26.1 10.3 3.9 142 142 152
26 10.3 4.3 157 157 167
25.9 10.3 4.4 156 159 168
25.8 10.3 4.3 154 159 165
25.7 10.3 4.4 99 104 110
51.2 10.2 4.733 58 66 69
51.1 10.2 7.6 47 48 52
51 10.2 7.7 162 164 176
50.9 10.2 7.9 222 224 237
50.8 10.2 8.1 169 167 178
50.7 10.2 8.2 95 92 99
50.6 10.2 8.2 136 130 134
50.5 10.2 8.1 128 122 124
50.4 10.2 8.1 155 150 154
50.3 10.2 8.4 130 129 134
50.2 10.2 8.4 121 124 129
50.1 10.2 8.5 104 111 119
50 10.2 8.6 89 99 108
49.9 10.2 8.7 174 187 193
49.8 10.2 8.7 172 183 189
49.7 10.2 8.7 179 190 192
49.6 10.2 8.7 175 185 186
49.5 10.2 8.7 177 186 185
49.4 10.2 8.7 176 186 185
49.3 10.2 8.7 168 177 176
49.2 10.2 8.7 173 174 178
49.1 10.2 8.7 186 184 189
49 10.2 8.7 192 185 193
48.9 10.2 8.7 195 187 198
48.8 10.2 8.7 124 116 129
48.7 10.2 8.8 61 57 71
48.6 10.2 8.8 131 133 148
48.5 10.2 8.7 178 184 200
48.4 10.2 8.7 156 165 182
48.3 10.2 8.6 142 155 172
48.2 10.2 8.6 135 148 167
48.1 10.2 8.5 121 134 153
48 10.2 8.5 116 127 149
47.9 10.2 8.5 67 72 92
47.8 10.2 8.5 49 45 60
47.7 10.2 8.5 67 59 72
47.6 10.2 8.4 91 89 103
47.5 10.2 8.4 129 130 148
47.4 10.2 8.3 135 140 160
47.3 10.2 8.3 132 139 158
47.2 10.2 8.3 149 154 174
47.1 10.2 8.2 149 152 169
47 10.2 8.1 159 158 172
46.9 10.2 8.1 87 85 96
46.8 10.2 8 77 72 79
46.7 10.2 7.8 149 144 150
46.6 10.2 7.7 184 182 187
46.5 10.2 7.7 173 172 178
46.4 10.2 7.6 156 155 163
46.3 10.2 7.7 121 120 126
46.2 10.2 7.6 89 85 86
46.1 10.2 7.5 62 57 54
46 10.2 7.4 46 37 38
45.9 10.2 7.3 49 40 41
45.8 10.2 7.2 74 64 65
45.7 10.2 7.1 74 64 65
45.6 10.2 7.1 99 88 92
45.5 10.2 6.7 134 123 127
45.4 10.2 6.6 124 113 119
45.3 10.2 6.3 70 60 68
45.2 10.2 6.1 80 70 78
45.1 10.2 5.9 77 70 78
45 10.2 5.8 63 57 67
44.9 10.2 5.8 39 36 45
44.8 10.2 5.8 35 32 43
44.7 10.2 5.7 29 31 43
44.6 10.2 5.6 28 40 54
44.5 10.2 5.4 22 38 51
44.4 10.2 5.2 20 34 45
44.3 10.2 5.1 26 36 45
44.2 10.2 5.1 38 45 51
44.1 10.2 5.1 53 57 58
44 10.2 5.1 63 63 61
43.9 10.2 5.2 70 67 62
43.8 10.2 5.1 86 79 73
43.7 10.2 5 78 69 62
43.6 10.2 4.9 80 67 59
43.5 10.2 5 86 71 64
43.4 10.2 4.9 83 68 63
43.3 10.2 4.6 81 63 59
43.2 10.2 4.5 92 74 72
43.1 10.2 4.3 108 94 93
43 10.2 4.1 128 118 119
42.9 10.2 3.7 157 148 151
42.8 10.2 3.5 85 76 79
42.7 10.2 3.3 98 92 94
42.6 10.2 3.2 120 114 118
42.5 10.2 2.9 138 133 137
42.4 10.2 2.8 218 213 219
42.3 10.2 2.1 255 253 255
42.2 10.2 1.8 247 245 250
42.1 10.2 1.4 254 252 255
42 10.2 1.1 255 255 255
41.9 10.2 1 254 254 255
41.8 10.2 0.9 253 253 253
41.7 10.2 0.8 254 254 254
41.6 10.2 0.7 253 255 252
41.5 10.2 0.9 250 252 249
41.4 10.2 0.8 255 255 255
41.3 10.2 0.8 255 255 255
41.2 10.2 0.8 255 255 255
41.1 10.2 0.8 255 255 255
41 10.2 0.8 255 255 255
40.9 10.2 0.7 255 255 255
40.8 10.2 0.7 255 255 255
40.7 10.2 0.7 255 255 255
40.6 10.2 0.7 255 255 255
40.5 10.2 0.7 255 255 255
40.4 10.2 0.7 255 255 255
40.3 10.2 0.7 255 255 255
40.2 10.2 0.7 255 255 255
40.1 10.2 0.7 255 255 255
40 10.2 0.7 255 255 255
39.9 10.2 0.6 255 255 255
39.8 10.2 0.6 255 255 255
39.7 10.2 0.6 255 255 255
39.6 10.2 0.6 255 255 255
39.5 10.2 0.6 255 255 255
39.4 10.2 0.6 255 255 255
39.3 10.2 0.6 255 255 255
39.2 10.2 0.6 255 255 255
39.1 10.2 0.7 255 255 255
39 10.2 0.7 255 255 255
38.9 10.2 0.7 255 255 255
38.8 10.2 0.7 255 255 255
38.7 10.2 0.7 255 255 255
38.6 10.2 0.7 255 255 255
38.5 10.2 0.7 255 255 255
38.4 10.2 0.7 255 255 255
38.3 10.2 0.7 255 255 255
38.2 10.2 0.7 255 255 255
38.1 10.2 0.7 255 255 255
38 10.2 0.7 255 255 255
37.9 10.2 0.7 255 255 255
37.8 10.2 0.7 255 255 255
37.7 10.2 0.7 255 255 255
37.6 10.2 0.7 255 255 255
37.5 10.2 0.7 255 255 255
37.4 10.2 0.7 255 255 255
37.3 10.2 0.7 255 255 255
37.2 10.2 0.7 255 255 255
37.1 10.2 0.7 255 255 255
37 10.2 0.7 255 255 255
36.9 10.2 0.7 255 255 255
36.8 10.2 0.7 255 255 255
36.7 10.2 0.6 255 255 255
36.6 10.2 0.6 255 255 255
36.5 10.2 0.6 255 255 255
36.4 10.2 0.6 255 255 255
36.3 10.2 0.6 255 255 255
36.2 10.2 0.6 255 255 255
36.1 10.2 0.6 255 255 255
36 10.2 0.6 255 255 255
35.9 10.2 0.6 255 255 255
35.8 10.2 0.6 255 255 255
35.7 10.2 0.6 255 255 255
35.6 10.2 0.7 255 255 255
35.5 10.2 0.7 255 255 255
35.4 10.2 0.7 255 255 255
35.3 10.2 0.7 255 255 255
35.2 10.2 0.7 255 255 255
35.1 10.2 0.7 255 255 255
35 10.2 0.7 255 255 255
34.9 10.2 0.7 255 255 255
34.8 10.2 0.7 255 255 255
34.7 10.2 0.7 255 255 255
34.6 10.2 0.7 255 255 255
34.5 10.2 0.7 255 255 255
34.4 10.2 0.7 255 255 255
34.3 10.2 0.7 255 255 255
34.2 10.2 0.7 255 255 255
34.1 10.2 0.7 255 255 255
34 10.2 0.7 255 255 255
33.9 10.2 0.7 255 255 255
33.8 10.2 0.6 255 255 255
33.7 10.2 0.6 255 255 255
33.6 10.2 0.6 255 255 255
33.5 10.2 0.8 255 255 255
33.4 10.2 0.8 255 255 255
33.3 10.2 0.8 255 255 255
33.2 10.2 0.8 255 255 255
33.1 10.2 0.8 255 255 255
33 10.2 0.8 255 255 255
32.9 10.2 0.8 255 255 255
32.8 10.2 0.8 255 255 255
32.7 10.2 0.7 255 255 255
32.6 10.2 0.7 255 255 255
32.5 10.2 0.7 255 255 255
32.4 10.2 0.7 255 255 255
32.3 10.2 0.7 255 255 255
32.2 10.2 0.7 255 255 255
32.1 10.2 0.7 255 255 255
32 10.2 0.7 255 255 255
31.9 10.2 0.7 255 255 255
31.8 10.2 0.7 255 255 255
31.7 10.2 0.7 255 255 255
31.6 10.2 0.7 255 255 255
31.5 10.2 0.7 255 255 255
31.4 10.2 0.7 255 255 255
31.3 10.2 0.7 255 255 255
31.2 10.2 0.7 255 255 255
31.1 10.2 0.7 255 255 255
31 10.2 0.8 255 255 255
30.9 10.2 0.8 255 255 255
30.8 10.2 0.9 255 255 255
30.7 10.2 0.9 255 255 255
30.6 10.2 0.8 255 255 255
30.5 10.2 0.8 255 255 255
30.4 10.2 0.7 255 255 255
30.3 10.2 0.7 255 255 255
30.2 10.2 0.7 255 255 255
30.1 10.2 0.6 255 255 255
30 10.2 0.5 255 255 255
29.9 10.2 0.5 255 255 255
29.8 10.2 0.5 255 255 255
29.7 10.2 0.6 255 255 255
29.6 10.2 0.6 255 255 255
29.5 10.2 0.7 255 255 255
29.4 10.2 0.7 255 255 255
29.3 10.2 0.8 255 255 255
29.2 10.2 0.8 255 255 255
29.1 10.2 0.8 255 255 255
29 10.2 0.8 255 255 255
28.9 10.2 0.9 255 255 255
28.8 10.2 0.9 255 255 255
28.7 10.2 0.8 254 255 255
28.6 10.2 0.8 251 255 255
28.5 10.2 0.9 252 255 255
28.4 10.2 0.9 251 252 254
28.3 10.2 0.9 250 252 251
28.2 10.2 0.8 254 254 254
28.1 10.2 0.8 255 254 255
28 10.2 0.7 252 250 251
27.9 10.2 1.1 255 254 253
27.8 10.2 1.8 255 252 249
27.7 10.2 2.6 107 102 99
27.6 10.2 3 35 30 26
27.5 10.2 2.9 104 99 95
27.4 10.2 2.8 121 116 112
27.3 10.2 2.9 106 101 95
27.2 10.2 3.1 115 110 104
27.1 10.2 3.1 144 141 134
27 10.2 3.2 104 105 99
26.9 10.2 3.3 75 77 72
26.8 10.2 3.3 104 106 103
26.7 10.2 3.3 117 119 118
26.6 10.2 3.4 135 135 137
26.5 10.2 3.6 150 149 154
26.4 10.2 3.8 149 148 154
26.3 10.2 3.8 143 142 148
26.2 10.2 3.9 141 140 148
26.1 10.2 4.2 157 157 165
26 10.2 4.5 162 162 172
25.9 10.2 4.4 111 114 123
25.8 10.2 4.2 52 56 65
25.7 10.2 4.4 19 23 32
51.2 10.1 12.433 61 68 76
51.1 10.1 7.9 52 51 56
51 10.1 8.1 207 206 220
50.9 10.1 8.3 181 180 196
50.8 10.1 8.4 101 97 111
50.7 10.1 8.5 50 45 52
50.6 10.1 8.4 81 72 77
50.5 10.1 8.3 102 93 96
50.4 10.1 8.2 162 156 160
50.3 10.1 8.5 136 134 137
50.2 10.1 8.5 122 123 128
50.1 10.1 8.6 107 114 120
50 10.1 8.7 86 95 102
49.9 10.1 8.7 175 186 192
49.8 10.1 8.7 175 186 190
49.7 10.1 8.7 180 190 192
49.6 10.1 8.7 177 185 187
49.5 10.1 8.7 178 187 186
49.4 10.1 8.7 183 193 192
49.3 10.1 8.7 176 185 184
49.2 10.1 8.7 168 169 173
49.1 10.1 8.7 188 186 191
49 10.1 8.7 167 157 165
48.9 10.1 8.7 137 125 135
48.8 10.1 8.7 92 82 93
48.7 10.1 8.8 44 36 49
48.6 10.1 8.8 68 64 78
48.5 10.1 8.8 85 84 98
48.4 10.1 8.7 91 94 109
48.3 10.1 8.7 103 109 123
48.2 10.1 8.7 105 112 128
48.1 10.1 8.6 84 91 107
48 10.1 8.6 68 73 92
47.9 10.1 8.6 61 60 76
47.8 10.1 8.6 76 66 77
47.7 10.1 8.5 76 65 73
47.6 10.1 8.5 70 62 75
47.5 10.1 8.4 72 70 83
47.4 10.1 8.4 73 74 92
47.3 10.1 8.3 71 74 91
47.2 10.1 8.3 82 84 99
47.1 10.1 8.2 96 98 111
47 10.1 8.2 56 54 65
46.9 10.1 8.1 46 43 50
46.8 10.1 8 54 47 54
46.7 10.1 7.9 108 102 106
46.6 10.1 7.8 158 153 157
46.5 10.1 7.7 171 169 174
46.4 10.1 7.7 164 163 169
46.3 10.1 7.7 140 139 144
46.2 10.1 7.7 125 121 122
46.1 10.1 7.6 109 103 103
46 10.1 7.5 92 83 84
45.9 10.1 7.4 71 62 63
45.8 10.1 7.3 62 52 53
45.7 10.1 7.2 60 49 53
45.6 10.1 7.2 72 61 65
45.5 10.1 7.2 81 70 76
45.4 10.1 7.1 81 68 77
45.3 10.1 6.9 49 38 46
45.2 10.1 6.6 66 54 64
45.1 10.1 6.4 69 59 68
45 10.1 6.3 67 59 70
44.9 10.1 6.2 54 46 57
44.8 10.1 6.2 46 40 52
44.7 10.1 5.8 28 26 37
44.6 10.1 5.6 35 39 51
44.5 10.1 5.4 36 42 54
44.4 10.1 5.1 36 40 49
44.3 10.1 5 29 32 39
44.2 10.1 4.9 31 32 36
44.1 10.1 4.9 51 49 50
44 10.1 5 66 63 58
43.9 10.1 5 66 59 53
43.8 10.1 4.9 69 60 53
43.7 10.1 4.8 74 63 57
43.6 10.1 4.8 80 70 61
43.5 10.1 4.8 84 71 65
43.4 10.1 4.7 84 71 65
43.3 10.1 4.5 91 77 74
43.2 10.1 4.3 110 96 95
43.1 10.1 4.3 128 117 115
43 10.1 4 121 111 112
42.9 10.1 3.7 126 117 120
42.8 10.1 3.5 90 81 84
42.7 10.1 3.3 89 80 83
42.6 10.1 3.1 106 100 104
42.5 10.1 2.9 129 123 127
42.4 10.1 2.7 167 162 168
42.3 10.1 2.3 249 244 250
42.2 10.1 2 244 242 247
42.1 10.1 1.5 248 246 251
42 10.1 1.2 251 250 255
41.9 10.1 1 254 254 255
41.8 10.1 0.9 255 255 255
41.7 10.1 0.8 255 255 255
41.6 10.1 0.7 254 255 253
41.5 10.1 1 254 255 253
41.4 10.1 0.9 255 255 255
41.3 10.1 0.9 255 255 255
41.2 10.1 0.9 255 255 255
41.1 10.1 0.9 255 255 255
41 10.1 0.8 255 255 255
40.9 10.1 0.8 255 255 255
40.8 10.1 0.8 255 255 255
40.7 10.1 0.7 255 255 255
40.6 10.1 0.7 255 255 255
40.5 10.1 0.7 255 255 255
40.4 10.1 0.7 255 255 255
40.3 10.1 0.7 255 255 255
40.2 10.1 0.7 255 255 255
40.1 10.1 0.7 255 255 255
40 10.1 0.7 255 255 255
39.9 10.1 0.5 255 255 255
39.8 10.1 0.5 255 255 255
39.7 10.1 0.5 255 255 255
39.6 10.1 0.5 255 255 255
39.5 10.1 0.5 255 255 255
39.4 10.1 0.5 255 255 255
39.3 10.1 0.5 255 255 255
39.2 10.1 0.5 255 255 255
39.1 10.1 0.7 255 255 255
39 10.1 0.7 255 255 255
38.9 10.1 0.7 255 255 255
38.8 10.1 0.7 255 255 255
38.7 10.1 0.7 255 255 255
38.6 10.1 0.7 255 255 255
38.5 10.1 0.7 255 255 255
38.4 10.1 0.7 255 255 255
38.3 10.1 0.7 255 255 255
38.2 10.1 0.7 255 255 255
38.1 10.1 0.7 255 255 255
38 10.1 0.7 255 255 255
37.9 10.1 0.7 255 255 255
37.8 10.1 0.7 255 255 255
37.7 10.1 0.7 255 255 255
37.6 10.1 0.7 255 255 255
37.5 10.1 0.7 255 255 255
37.4 10.1 0.7 255 255 255
37.3 10.1 0.7 255 255 255
37.2 10.1 0.7 255 255 255
37.1 10.1 0.7 255 255 255
37 10.1 0.7 255 255 255
36.9 10.1 0.7 255 255 255
36.8 10.1 0.7 255 255 255
36.7 10.1 0.6 255 255 255
36.6 10.1 0.6 255 255 255
36.5 10.1 0.6 255 255 255
36.4 10.1 0.6 255 255 255
36.3 10.1 0.6 255 255 255
36.2 10.1 0.6 255 255 255
36.1 10.1 0.6 255 255 255
36 10.1 0.6 255 255 255
35.9 10.1 0.7 255 255 255
35.8 10.1 0.7 255 255 255
35.7 10.1 0.7 255 255 255
35.6 10.1 0.7 255 255 255
35.5 10.1 0.7 255 255 255
35.4 10.1 0.7 255 255 255
35.3 10.1 0.7 255 255 255
35.2 10.1 0.7 255 255 255
35.1 10.1 0.7 255 255 255
35 10.1 0.7 255 255 255
34.9 10.1 0.7 255 255 255
34.8 10.1 0.7 255 255 255
34.7 10.1 0.7 255 255 255
34.6 10.1 0.7 255 255 255
34.5 10.1 0.7 255 255 255
34.4 10.1 0.7 255 255 255
34.3 10.1 0.8 255 255 255
34.2 10.1 0.8 255 255 255
34.1 10.1 0.7 255 255 255
34 10.1 0.7 255 255 255
33.9 10.1 0.7 255 255 255
33.8 10.1 0.7 255 255 255
33.7 10.1 0.6 255 255 255
33.6 10.1 0.6 255 255 255
33.5 10.1 0.8 255 255 255
33.4 10.1 0.8 255 255 255
33.3 10.1 0.8 255 255 255
33.2 10.1 0.8 255 255 255
33.1 10.1 0.8 255 255 255
33 10.1 0.8 255 255 255
32.9 10.1 0.8 255 255 255
32.8 10.1 0.8 255 255 255
32.7 10.1 0.7 255 255 255
32.6 10.1 0.7 255 255 255
32.5 10.1 0.7 255 255 255
32.4 10.1 0.7 255 255 255
32.3 10.1 0.7 255 255 255
32.2 10.1 0.7 255 255 255
32.1 10.1 0.7 255 255 255
32 10.1 0.7 255 255 255
31.9 10.1 0.7 255 255 255
31.8 10.1 0.7 255 255 255
31.7 10.1 0.7 255 255 255
31.6 10.1 0.7 255 255 255
31.5 10.1 0.7 255 255 255
31.4 10.1 0.7 255 255 255
31.3 10.1 0.7 255 255 255
31.2 10.1 0.7 255 255 255
31.1 10.1 0.7 255 255 255
31 10.1 0.8 255 255 255
30.9 10.1 0.8 255 255 255
30.8 10.1 0.9 255 255 255
30.7 10.1 0.9 255 255 255
30.6 10.1 0.8 255 255 255
30.5 10.1 0.8 255 255 255
30.4 10.1 0.7 255 255 255
30.3 10.1 0.7 255 255 255
30.2 10.1 0.7 255 255 255
30.1 10.1 0.6 255 255 255
30 10.1 0.6 255 255 255
29.9 10.1 0.6 255 255 255
29.8 10.1 0.6 255 255 255
29.7 10.1 0.6 255 255 255
29.6 10.1 0.7 255 255 255
29.5 10.1 0.8 255 255 255
29.4 10.1 0.8 255 255 255
29.3 10.1 0.8 255 255 255
29.2 10.1 0.8 255 255 255
29.1 10.1 0.8 255 255 255
29 10.1 0.8 255 255 255
28.9 10.1 0.8 255 255 255
28.8 10.1 0.8 255 255 255
28.7 10.1 0.8 255 255 255
28.6 10.1 0.9 254 255 255
28.5 10.1 1 253 255 254
28.4 10.1 1 254 255 255
28.3 10.1 0.9 250 250 248
28.2 10.1 0.8 252 250 251
28.1 10.1 0.7 255 254 253
28 10.1 0.8 252 248 247
27.9 10.1 1.7 255 253 253
27.8 10.1 2.2 202 197 194
27.7 10.1 2.8 44 39 36
27.6 10.1 3 80 75 71
27.5 10.1 2.9 119 114 110
27.4 10.1 2.8 102 97 93
27.3 10.1 2.9 113 110 105
27.2 10.1 3 116 113 108
27.1 10.1 3.1 146 145 140
27 10.1 3.2 107 109 106
26.9 10.1 3.3 94 96 95
26.8 10.1 3.3 119 121 120
26.7 10.1 3.3 134 135 137
26.6 10.1 3.4 154 154 156
26.5 10.1 3.6 153 153 155
26.4 10.1 3.8 131 130 135
26.3 10.1 3.9 146 145 150
26.2 10.1 4 160 159 165
26.1 10.1 4.3 123 122 130
26 10.1 4.5 71 69 80
25.9 10.1 4.2 27 27 37
25.8 10.1 4 38 40 52
25.7 10.1 4.5 107 111 123
51.2 10 21.2 180 184 196
51.1 10 8.3 57 56 61
51 10 8.4 106 105 119
50.9 10 8.6 71 68 85
50.8 10 8.7 47 41 55
50.7 10 8.7 62 54 65
50.6 10 8.7 46 35 41
50.5 10 8.5 32 21 25
50.4 10 8.4 97 88 91
50.3 10 8.6 138 133 137
50.2 10 8.6 122 121 127
50.1 10 8.7 118 123 129
50 10 8.8 90 97 105
49.9 10 8.8 176 185 192
49.8 10 8.8 177 186 191
49.7 10 8.7 178 188 190
49.6 10 8.7 178 186 188
49.5 10 8.8 177 186 185
49.4 10 8.8 182 192 191
49.3 10 8.8 169 178 177
49.2 10 8.8 165 166 168
49.1 10 8.8 202 197 201
49 10 8.8 144 133 139
48.9 10 8.8 73 60 69
48.8 10 8.8 66 53 62
48.7 10 8.8 69 57 67
48.6 10 8.8 76 68 79
48.5 10 8.8 90 84 94
48.4 10 8.8 110 108 119
48.3 10 8.8 89 89 99
48.2 10 8.8 90 90 102
48.1 10 8.7 102 102 114
48 10 8.7 73 71 84
47.9 10 8.6 73 67 77
47.8 10 8.6 69 54 59
47.7 10 8.5 68 53 56
47.6 10 8.5 87 76 84
47.5 10 8.4 88 81 89
47.4 10 8.4 99 95 109
47.3 10 8.3 105 103 116
47.2 10 8.3 84 84 96
47.1 10 8.3 104 102 113
47 10 8.3 108 103 110
46.9 10 8.2 69 63 67
46.8 10 8.1 55 49 51
46.7 10 8 62 56 58
46.6 10 7.9 63 59 60
46.5 10 7.8 117 115 118
46.4 10 7.8 182 181 187
46.3 10 7.8 170 168 173
46.2 10 7.7 181 177 178
46.1 10 7.7 164 158 160
46 10 7.6 166 157 160
45.9 10 7.5 153 144 147
45.8 10 7.4 89 78 82
45.7 10 7.3 43 32 38
45.6 10 7.2 60 47 54
45.5 10 7.5 99 86 95
45.4 10 7.4 86 70 80
45.3 10 7.2 62 49 59
45.2 10 7 70 57 67
45.1 10 6.8 44 32 42
45 10 6.6 43 31 43
44.9 10 6.5 51 41 52
44.8 10 6.4 57 47 58
44.7 10 5.9 51 43 54
44.6 10 5.8 44 38 48
44.5 10 5.6 50 45 52
44.4 10 5.3 49 44 50
44.3 10 5.1 35 29 33
44.2 10 4.9 39 30 31
44.1 10 4.9 73 65 62
44 10 4.8 93 84 79
43.9 10 4.8 80 69 63
43.8 10 4.7 76 66 57
43.7 10 4.7 92 82 73
43.6 10 4.7 92 81 75
43.5 10 4.7 77 68 61
43.4 10 4.7 85 75 73
43.3 10 4.5 115 105 103
43.2 10 4.3 129 121 119
43.1 10 4.3 124 116 114
43 10 4 112 102 103
42.9 10 3.7 114 104 105
42.8 10 3.4 97 88 91
42.7 10 3.3 83 74 77
42.6 10 3.1 97 88 93
42.5 10 2.9 121 115 119
42.4 10 2.7 132 127 133
42.3 10 2.4 217 212 219
42.2 10 2.1 244 241 248
42.1 10 1.6 242 240 245
42 10 1.3 245 244 249
41.9 10 1.1 255 255 255
41.8 10 1 254 255 255
41.7 10 0.8 252 254 253
41.6 10 0.7 252 254 251
41.5 10 1 254 255 253
41.4 10 1 255 255 255
41.3 10 1 255 255 255
41.2 10 0.9 255 255 255
41.1 10 0.9 255 255 255
41 10 0.9 255 255 255
40.9 10 0.9 255 255 255
40.8 10 0.8 255 255 255
40.7 10 0.7 255 255 255
40.6 10 0.7 255 255 255
40.5 10 0.7 255 255 255
40.4 10 0.7 255 255 255
40.3 10 0.7 255 255 255
40.2 10 0.7 255 255 255
40.1 10 0.7 255 255 255
40 10 0.7 255 255 255
39.9 10 0.6 255 255 255
39.8 10 0.6 255 255 255
39.7 10 0.6 255 255 255
39.6 10 0.6 255 255 255
39.5 10 0.6 255 255 255
39.4 10 0.6 255 255 255
39.3 10 0.6 255 255 255
39.2 10 0.6 255 255 255
39.1 10 0.7 255 255 255
39 10 0.7 255 255 255
38.9 10 0.7 255 255 255
38.8 10 0.7 255 255 255
38.7 10 0.7 255 255 255
38.6 10 0.7 255 255 255
38.5 10 0.7 255 255 255
38.4 10 0.7 255 255 255
38.3 10 0.7 255 255 255
38.2 10 0.7 255 255 255
38.1 10 0.7 255 255 255
38 10 0.7 255 255 255
37.9 10 0.7 255 255 255
37.8 10 0.7 255 255 255
37.7 10 0.7 255 255 255
37.6 10 0.7 255 255 255
37.5 10 0.7 255 255 255
37.4 10 0.7 255 255 255
37.3 10 0.7 255 255 255
37.2 10 0.7 255 255 255
37.1 10 0.7 255 255 255
37 10 0.7 255 255 255
36.9 10 0.7 255 255 255
36.8 10 0.7 255 255 255
36.7 10 0.7 255 255 255
36.6 10 0.7 255 255 255
36.5 10 0.7 255 255 255
36.4 10 0.7 255 255 255
36.3 10 0.7 255 255 255
36.2 10 0.7 255 255 255
36.1 10 0.7 255 255 255
36 10 0.7 255 255 255
35.9 10 0.8 255 255 255
35.8 10 0.8 255 255 255
35.7 10 0.8 255 255 255
35.6 10 0.7 255 255 255
35.5 10 0.7 255 255 255
35.4 10 0.7 255 255 255
35.3 10 0.7 255 255 255
35.2 10 0.7 255 255 255
35.1 10 0.7 255 255 255
35 10 0.7 255 255 255
34.9 10 0.7 255 255 255
34.8 10 0.7 255 255 255
34.7 10 0.7 255 255 255
34.6 10 0.7 255 255 255
34.5 10 0.7 255 255 255
34.4 10 0.7 255 255 255
34.3 10 0.8 255 255 255
34.2 10 0.8 255 255 255
34.1 10 0.8 255 255 255
34 10 0.8 255 255 255
33.9 10 0.7 255 255 255
33.8 10 0.7 255 255 255
33.7 10 0.7 255 255 255
33.6 10 0.7 255 255 255
33.5 10 0.8 255 255 255
33.4 10 0.8 255 255 255
33.3 10 0.8 255 255 255
33.2 10 0.8 255 255 255
33.1 10 0.8 255 255 255
33 10 0.8 255 255 255
32.9 10 0.8 255 255 255
32.8 10 0.8 255 255 255
32.7 10 0.7 255 255 255
32.6 10 0.7 255 255 255
32.5 10 0.7 255 255 255
32.4 10 0.7 255 255 255
32.3 10 0.7 255 255 255
32.2 10 0.7 255 255 255
32.1 10 0.7 255 255 255
32 10 0.7 255 255 255
31.9 10 0.7 255 255 255
31.8 10 0.7 255 255 255
31.7 10 0.7 255 255 255
31.6 10 0.7 255 255 255
31.5 10 0.7 255 255 255
31.4 10 0.7 255 255 255
31.3 10 0.7 255 255 255
31.2 10 0.7 255 255 255
31.1 10 0.7 255 255 255
31 10 0.8 255 255 255
30.9 10 0.8 255 255 255
30.8 10 0.9 255 255 255
30.7 10 0.9 255 255 255
30.6 10 0.8 255 255 255
30.5 10 0.8 255 255 255
30.4 10 0.7 255 255 255
30.3 10 0.7 255 255 255
30.2 10 0.7 255 255 255
30.1 10 0.6 255 255 255
30 10 0.6 255 255 255
29.9 10 0.6 255 255 255
29.8 10 0.7 255 255 255
29.7 10 0.7 255 255 255
29.6 10 0.8 255 255 255
29.5 10 0.8 255 255 255
29.4 10 0.8 255 255 255
29.3 10 0.8 255 255 255
29.2 10 0.8 255 255 255
29.1 10 0.8 255 255 255
29 10 0.8 255 255 255
28.9 10 0.8 255 255 255
28.8 10 0.8 255 255 255
28.7 10 0.8 255 255 255
28.6 10 0.9 255 255 253
28.5 10 1.1 251 251 249
28.4 10 1 255 255 253
28.3 10 0.8 255 255 251
28.2 10 0.8 254 250 249
28.1 10 0.8 255 251 248
28 10 1 255 253 250
27.9 10 2.1 255 253 251
27.8 10 2.4 117 109 107
27.7 10 2.8 45 37 35
27.6 10 3 110 105 102
27.5 10 2.9 114 109 106
27.4 10 2.8 113 109 106
27.3 10 2.8 84 83 79
27.2 10 2.9 85 84 80
27.1 10 3.1 163 163 161
27 10 3.3 103 104 106
26.9 10 3.4 99 103 106
26.8 10 3.4 154 155 159
26.7 10 3.4 167 168 170
26.6 10 3.5 135 135 137
26.5 10 3.7 145 143 144
26.4 10 3.9 157 155 158
26.3 10 4 159 157 160
26.2 10 4 110 108 113
26.1 10 4.2 54 53 59
26 10 4.3 43 42 50
25.9 10 4.1 99 99 111
25.8 10 4.1 164 166 179
25.7 10 4.8 215 218 235
51.2 9.9 17.933 211 214 231
51.1 9.9 8.5 61 60 65
51 9.9 8.6 46 45 61
50.9 9.9 8.7 73 70 89
50.8 9.9 8.8 79 73 87
50.7 9.9 8.8 72 62 73
50.6 9.9 8.8 54 41 48
50.5 9.9 8.7 29 17 21
50.4 9.9 8.7 26 15 19
50.3 9.9 8.7 63 57 61
50.2 9.9 8.7 93 91 96
50.1 9.9 8.8 109 112 117
50 9.9 8.8 83 87 96
49.9 9.9 8.8 167 176 183
49.8 9.9 8.8 172 181 186
49.7 9.9 8.7 176 184 187
49.6 9.9 8.7 182 187 190
49.5 9.9 8.8 181 187 187
49.4 9.9 8.8 179 188 187
49.3 9.9 8.8 175 184 183
49.2 9.9 8.8 165 165 167
49.1 9.9 8.8 181 175 179
49 9.9 8.8 122 109 116
48.9 9.9 8.8 79 64 71
48.8 9.9 8.8 84 67 75
48.7 9.9 8.8 68 52 62
48.6 9.9 8.8 59 46 55
48.5 9.9 8.8 85 75 83
48.4 9.9 8.8 131 124 131
48.3 9.9 8.8 122 117 123
48.2 9.9 8.8 127 122 129
48.1 9.9 8.8 138 131 139
48 9.9 8.8 96 89 97
47.9 9.9 8.6 90 79 85
47.8 9.9 8.6 74 55 57
47.7 9.9 8.6 69 49 50
47.6 9.9 8.5 99 84 87
47.5 9.9 8.5 101 90 96
47.4 9.9 8.4 117 110 118
47.3 9.9 8.4 131 128 137
47.2 9.9 8.4 106 103 112
47.1 9.9 8.4 125 122 129
47 9.9 8.3 84 78 82
46.9 9.9 8.3 66 57 60
46.8 9.9 8.2 60 51 52
46.7 9.9 8 81 72 73
46.6 9.9 7.9 94 88 88
46.5 9.9 7.9 128 124 125
46.4 9.9 7.8 179 177 182
46.3 9.9 7.8 190 188 193
46.2 9.9 7.8 172 167 171
46.1 9.9 7.7 197 191 193
46 9.9 7.6 191 182 185
45.9 9.9 7.5 123 114 117
45.8 9.9 7.4 49 38 44
45.7 9.9 7.3 75 62 69
45.6 9.9 7.3 112 96 106
45.5 9.9 7.4 105 89 99
45.4 9.9 7.3 81 65 76
45.3 9.9 7.2 92 76 87
45.2 9.9 7 152 136 147
45.1 9.9 6.8 132 119 129
45 9.9 6.7 118 104 117
44.9 9.9 6.5 101 87 100
44.8 9.9 6.5 56 42 55
44.7 9.9 6.1 37 24 34
44.6 9.9 6 64 51 60
44.5 9.9 5.9 60 48 52
44.4 9.9 5.6 55 40 43
44.3 9.9 5.4 37 23 23
44.2 9.9 5.1 39 25 24
44.1 9.9 4.9 82 69 63
44 9.9 4.8 108 93 86
43.9 9.9 4.7 90 75 68
43.8 9.9 4.7 89 76 68
43.7 9.9 4.6 80 67 59
43.6 9.9 4.6 75 66 59
43.5 9.9 4.7 86 79 73
43.4 9.9 4.6 98 90 88
43.3 9.9 4.5 95 89 89
43.2 9.9 4.3 89 85 84
43.1 9.9 4.2 86 80 80
43 9.9 4 95 86 87
42.9 9.9 3.6 134 124 125
42.8 9.9 3.4 112 103 106
42.7 9.9 3.2 101 92 95
42.6 9.9 3.1 100 91 96
42.5 9.9 2.8 110 101 106
42.4 9.9 2.7 121 114 122
42.3 9.9 2.4 155 150 157
42.2 9.9 2.1 232 229 236
42.1 9.9 1.7 237 234 241
42 9.9 1.3 246 245 250
41.9 9.9 1.1 255 254 255
41.8 9.9 1 254 255 255
41.7 9.9 0.9 251 253 252
41.6 9.9 0.8 251 253 250
41.5 9.9 1 254 255 253
41.4 9.9 0.9 255 255 255
41.3 9.9 0.9 255 255 255
41.2 9.9 0.9 255 255 255
41.1 9.9 0.9 255 255 255
41 9.9 0.9 255 255 255
40.9 9.9 0.8 255 255 255
40.8 9.9 0.8 255 255 255
40.7 9.9 0.7 255 255 255
40.6 9.9 0.7 255 255 255
40.5 9.9 0.7 255 255 255
40.4 9.9 0.7 255 255 255
40.3 9.9 0.7 255 255 255
40.2 9.9 0.7 255 255 255
40.1 9.9 0.7 255 255 255
40 9.9 0.7 255 255 255
39.9 9.9 0.7 255 255 255
39.8 9.9 0.7 255 255 255
39.7 9.9 0.7 255 255 255
39.6 9.9 0.7 255 255 255
39.5 9.9 0.7 255 255 255
39.4 9.9 0.7 255 255 255
39.3 9.9 0.7 255 255 255
39.2 9.9 0.7 255 255 255
39.1 9.9 0.7 255 255 255
39 9.9 0.7 255 255 255
38.9 9.9 0.7 255 255 255
38.8 9.9 0.7 255 255 255
38.7 9.9 0.7 255 255 255
38.6 9.9 0.7 255 255 255
38.5 9.9 0.7 255 255 255
38.4 9.9 0.7 255 255 255
38.3 9.9 0.7 255 255 255
38.2 9.9 0.7 255 255 255
38.1 9.9 0.7 255 255 255
38 9.9 0.7 255 255 255
37.9 9.9 0.7 255 255 255
37.8 9.9 0.7 255 255 255
37.7 9.9 0.7 255 255 255
37.6 9.9 0.7 255 255 255
37.5 9.9 0.7 255 255 255
37.4 9.9 0.7 255 255 255
37.3 9.9 0.7 255 255 255
37.2 9.9 0.7 255 255 255
37.1 9.9 0.7 255 255 255
37 9.9 0.7 255 255 255
36.9 9.9 0.7 255 255 255
36.8 9.9 0.7 255 255 255
36.7 9.9 0.7 255 255 255
36.6 9.9 0.7 255 255 255
36.5 9.9 0.7 255 255 255
36.4 9.9 0.7 255 255 255
36.3 9.9 0.7 255 255 255
36.2 9.9 0.7 255 255 255
36.1 9.9 0.7 255 255 255
36 9.9 0.7 255 255 255
35.9 9.9 0.8 255 255 255
35.8 9.9 0.8 255 255 255
35.7 9.9 0.8 255 255 255
35.6 9.9 0.8 255 255 255
35.5 9.9 0.8 255 255 255
35.4 9.9 0.7 255 255 255
35.3 9.9 0.7 255 255 255
35.2 9.9 0.7 255 255 255
35.1 9.9 0.8 255 255 255
35 9.9 0.8 255 255 255
34.9 9.9 0.8 255 255 255
34.8 9.9 0.8 255 255 255
34.7 9.9 0.8 255 255 255
34.6 9.9 0.8 255 255 255
34.5 9.9 0.8 255 255 255
34.4 9.9 0.8 255 255 255
34.3 9.9 0.8 255 255 255
34.2 9.9 0.8 255 255 255
34.1 9.9 0.8 255 255 255
34 9.9 0.8 255 255 255
33.9 9.9 0.8 255 255 255
33.8 9.9 0.7 255 255 255
33.7 9.9 0.7 255 255 255
33.6 9.9 0.7 255 255 255
33.5 9.9 0.9 255 255 255
33.4 9.9 0.9 255 255 255
33.3 9.9 0.9 255 255 255
33.2 9.9 0.9 255 255 255
33.1 9.9 0.9 255 255 255
33 9.9 0.9 255 255 255
32.9 9.9 0.9 255 255 255
32.8 9.9 0.9 255 255 255
32.7 9.9 0.8 255 255 255
32.6 9.9 0.8 255 255 255
32.5 9.9 0.8 255 255 255
32.4 9.9 0.8 255 255 255
32.3 9.9 0.8 255 255 255
32.2 9.9 0.8 255 255 255
32.1 9.9 0.8 255 255 255
32 9.9 0.8 255 255 255
31.9 9.9 0.7 255 255 255
31.8 9.9 0.7 255 255 255
31.7 9.9 0.7 255 255 255
31.6 9.9 0.7 255 255 255
31.5 9.9 0.7 255 255 255
31.4 9.9 0.7 255 255 255
31.3 9.9 0.7 255 255 255
31.2 9.9 0.7 255 255 255
31.1 9.9 0.7 255 255 255
31 9.9 0.8 255 255 255
30.9 9.9 0.8 255 255 255
30.8 9.9 0.9 255 255 255
30.7 9.9 0.9 255 255 255
30.6 9.9 0.8 255 255 255
30.5 9.9 0.8 255 255 255
30.4 9.9 0.7 255 255 255
30.3 9.9 0.7 255 255 255
30.2 9.9 0.7 255 255 255
30.1 9.9 0.6 255 255 255
30 9.9 0.6 255 255 255
29.9 9.9 0.6 255 255 255
29.8 9.9 0.7 255 255 255
29.7 9.9 0.8 255 255 255
29.6 9.9 0.8 255 255 255
29.5 9.9 0.9 255 255 255
29.4 9.9 0.9 255 255 255
29.3 9.9 0.8 255 255 255
29.2 9.9 0.8 255 255 255
29.1 9.9 0.8 255 255 255
29 9.9 0.8 255 255 255
28.9 9.9 0.7 255 255 255
28.8 9.9 0.7 255 255 255
28.7 9.9 0.7 255 255 253
28.6 9.9 0.9 255 255 251
28.5 9.9 1 250 251 246
28.4 9.9 0.9 255 255 251
28.3 9.9 0.7 255 254 251
28.2 9.9 0.7 255 252 249
28.1 9.9 1 255 250 247
28 9.9 1.3 255 253 251
27.9 9.9 2.4 221 213 211
27.8 9.9 2.6 55 47 45
27.7 9.9 2.8 74 66 64
27.6 9.9 2.9 120 115 112
27.5 9.9 2.8 120 116 113
27.4 9.9 2.8 98 97 93
27.3 9.9 2.8 55 56 51
27.2 9.9 2.9 106 107 102
27.1 9.9 3.2 150 152 151
27 9.9 3.3 111 114 119
26.9 9.9 3.4 140 143 150
26.8 9.9 3.4 161 162 167
26.7 9.9 3.4 160 159 164
26.6 9.9 3.5 136 134 137
26.5 9.9 3.7 151 149 150
26.4 9.9 3.9 166 162 161
26.3 9.9 4.1 161 157 158
26.2 9.9 4 119 117 118
26.1 9.9 4.1 45 43 48
26 9.9 4.4 75 72 81
25.9 9.9 4.5 202 200 213
25.8 9.9 4.7 239 238 254
25.7 9.9 5.4 191 192 212
51.2 9.8 5.6 107 109 130
51.1 9.8 8.5 64 63 68
51 9.8 8.5 72 69 86
50.9 9.8 8.6 125 120 140
50.8 9.8 8.6 126 118 133
50.7 9.8 8.7 50 40 51
50.6 9.8 8.7 69 56 63
50.5 9.8 8.8 86 74 78
50.4 9.8 8.8 35 23 27
50.3 9.8 8.8 15 6 11
50.2 9.8 8.8 60 55 61
50.1 9.8 8.9 97 98 103
50 9.8 8.9 77 80 89
49.9 9.8 8.9 162 169 177
49.8 9.8 8.8 169 176 182
49.7 9.8 8.8 174 182 185
49.6 9.8 8.7 184 189 192
49.5 9.8 8.9 181 187 187
49.4 9.8 8.9 182 191 188
49.3 9.8 8.9 185 194 191
49.2 9.8 8.9 169 169 169
49.1 9.8 8.9 158 152 154
49 9.8 8.9 101 89 93
48.9 9.8 8.9 88 71 77
48.8 9.8 8.9 90 71 77
48.7 9.8 8.9 49 30 36
48.6 9.8 8.9 83 66 72
48.5 9.8 8.9 89 77 81
48.4 9.8 8.9 97 86 90
48.3 9.8 8.9 102 93 96
48.2 9.8 8.9 106 95 99
48.1 9.8 8.9 98 87 91
48 9.8 8.9 95 83 87
47.9 9.8 8.8 109 93 94
47.8 9.8 8.8 122 101 98
47.7 9.8 8.7 109 85 81
47.6 9.8 8.7 109 91 91
47.5 9.8 8.6 101 86 89
47.4 9.8 8.6 99 89 97
47.3 9.8 8.5 103 96 104
47.2 9.8 8.5 91 84 92
47.1 9.8 8.4 96 89 96
47 9.8 8.4 88 79 82
46.9 9.8 8.3 88 78 79
46.8 9.8 8.2 68 58 57
46.7 9.8 8.1 78 68 67
46.6 9.8 8 97 91 91
46.5 9.8 7.9 102 98 99
46.4 9.8 7.9 130 128 133
46.3 9.8 7.9 169 167 172
46.2 9.8 7.9 185 180 184
46.1 9.8 7.8 182 176 180
46 9.8 7.7 175 166 171
45.9 9.8 7.6 139 130 135
45.8 9.8 7.5 70 59 67
45.7 9.8 7.4 82 69 78
45.6 9.8 7.3 98 82 93
45.5 9.8 7.2 83 65 77
45.4 9.8 7.2 83 65 77
45.3 9.8 7.1 79 61 73
45.2 9.8 7 151 133 145
45.1 9.8 6.9 139 123 134
45 9.8 6.7 141 125 136
44.9 9.8 6.6 134 118 129
44.8 9.8 6.5 77 61 72
44.7 9.8 6.3 75 59 69
44.6 9.8 6.3 76 57 63
44.5 9.8 6.2 71 51 53
44.4 9.8 6 71 51 52
44.3 9.8 5.7 60 40 39
44.2 9.8 5.3 51 32 28
44.1 9.8 4.9 84 65 59
44 9.8 4.7 121 104 96
43.9 9.8 4.7 121 104 96
43.8 9.8 4.6 104 90 81
43.7 9.8 4.6 87 74 66
43.6 9.8 4.6 85 76 69
43.5 9.8 4.7 103 96 90
43.4 9.8 4.7 98 94 91
43.3 9.8 4.5 72 71 69
43.2 9.8 4.3 63 63 65
43.1 9.8 4.2 77 75 76
43 9.8 3.9 129 120 121
42.9 9.8 3.6 166 156 155
42.8 9.8 3.4 129 119 120
42.7 9.8 3.2 113 102 106
42.6 9.8 3 90 81 86
42.5 9.8 2.8 90 81 86
42.4 9.8 2.6 119 112 120
42.3 9.8 2.4 140 135 142
42.2 9.8 2.1 204 201 208
42.1 9.8 1.7 232 229 236
42 9.8 1.4 252 251 255
41.9 9.8 1.2 252 251 255
41.8 9.8 1.1 248 249 251
41.7 9.8 1 253 255 254
41.6 9.8 0.9 254 255 253
41.5 9.8 0.9 251 253 250
41.4 9.8 0.9 255 255 255
41.3 9.8 0.9 255 255 255
41.2 9.8 0.8 255 255 255
41.1 9.8 0.8 255 255 255
41 9.8 0.8 255 255 255
40.9 9.8 0.8 255 255 255
40.8 9.8 0.8 255 255 255
40.7 9.8 0.7 255 255 255
40.6 9.8 0.7 255 255 255
40.5 9.8 0.7 255 255 255
40.4 9.8 0.7 255 255 255
40.3 9.8 0.7 255 255 255
40.2 9.8 0.7 255 255 255
40.1 9.8 0.7 255 255 255
40 9.8 0.7 255 255 255
39.9 9.8 0.8 255 255 255
39.8 9.8 0.8 255 255 255
39.7 9.8 0.8 255 255 255
39.6 9.8 0.8 255 255 255
39.5 9.8 0.8 255 255 255
39.4 9.8 0.8 255 255 255
39.3 9.8 0.8 255 255 255
39.2 9.8 0.8 255 255 255
39.1 9.8 0.7 255 255 255
39 9.8 0.7 255 255 255
38.9 9.8 0.7 255 255 255
38.8 9.8 0.7 255 255 255
38.7 9.8 0.7 255 255 255
38.6 9.8 0.7 255 255 255
38.5 9.8 0.7 255 255 255
38.4 9.8 0.7 255 255 255
38.3 9.8 0.7 255 255 255
38.2 9.8 0.7 255 255 255
38.1 9.8 0.7 255 255 255
38 9.8 0.7 255 255 255
37.9 9.8 0.7 255 255 255
37.8 9.8 0.7 255 255 255
37.7 9.8 0.7 255 255 255
37.6 9.8 0.7 255 255 255
37.5 9.8 0.7 255 255 255
37.4 9.8 0.7 255 255 255
37.3 9.8 0.7 255 255 255
37.2 9.8 0.7 255 255 255
37.1 9.8 0.7 255 255 255
37 9.8 0.7 255 255 255
36.9 9.8 0.7 255 255 255
36.8 9.8 0.7 255 255 255
36.7 9.8 0.7 255 255 255
36.6 9.8 0.7 255 255 255
36.5 9.8 0.7 255 255 255
36.4 9.8 0.7 255 255 255
36.3 9.8 0.7 255 255 255
36.2 9.8 0.7 255 255 255
36.1 9.8 0.7 255 255 255
36 9.8 0.7 255 255 255
35.9 9.8 0.9 255 255 255
35.8 9.8 0.9 255 255 255
35.7 9.8 0.9 255 255 255
35.6 9.8 0.8 255 255 255
35.5 9.8 0.8 255 255 255
35.4 9.8 0.7 255 255 255
35.3 9.8 0.7 255 255 255
35.2 9.8 0.7 255 255 255
35.1 9.8 0.8 255 255 255
35 9.8 0.8 255 255 255
34.9 9.8 0.8 255 255 255
34.8 9.8 0.8 255 255 255
34.7 9.8 0.8 255 255 255
34.6 9.8 0.8 255 255 255
34.5 9.8 0.8 255 255 255
34.4 9.8 0.8 255 255 255
34.3 9.8 0.9 255 255 255
34.2 9.8 0.9 255 255 255
34.1 9.8 0.8 255 255 255
34 9.8 0.8 255 255 255
33.9 9.8 0.8 255 255 255
33.8 9.8 0.8 255 255 255
33.7 9.8 0.7 255 255 255
33.6 9.8 0.7 255 255 255
33.5 9.8 0.9 255 255 255
33.4 9.8 0.9 255 255 255
33.3 9.8 0.9 255 255 255
33.2 9.8 0.9 255 255 255
33.1 9.8 0.9 255 255 255
33 9.8 0.9 255 255 255
32.9 9.8 0.9 255 255 255
32.8 9.8 0.9 255 255 255
32.7 9.8 0.8 255 255 255
32.6 9.8 0.8 255 255 255
32.5 9.8 0.8 255 255 255
32.4 9.8 0.8 255 255 255
32.3 9.8 0.8 255 255 255
32.2 9.8 0.8 255 255 255
32.1 9.8 0.8 255 255 255
32 9.8 0.8 255 255 255
31.9 9.8 0.7 255 255 255
31.8 9.8 0.7 255 255 255
31.7 9.8 0.7 255 255 255
31.6 9.8 0.7 255 255 255
31.5 9.8 0.7 255 255 255
31.4 9.8 0.7 255 255 255
31.3 9.8 0.7 255 255 255
31.2 9.8 0.7 255 255 255
31.1 9.8 0.7 255 255 255
31 9.8 0.8 255 255 255
30.9 9.8 0.8 255 255 255
30.8 9.8 0.9 255 255 255
30.7 9.8 0.9 255 255 255
30.6 9.8 0.8 255 255 255
30.5 9.8 0.8 255 255 255
30.4 9.8 0.7 255 255 255
30.3 9.8 0.7 255 255 255
30.2 9.8 0.7 255 255 255
30.1 9.8 0.6 255 255 255
30 9.8 0.6 255 255 255
29.9 9.8 0.7 255 255 255
29.8 9.8 0.8 255 255 255
29.7 9.8 0.8 255 255 255
29.6 9.8 0.9 255 255 255
29.5 9.8 0.9 255 255 255
29.4 9.8 0.9 255 255 255
29.3 9.8 0.9 255 255 255
29.2 9.8 0.8 255 255 255
29.1 9.8 0.8 255 255 255
29 9.8 0.7 255 255 255
28.9 9.8 0.7 255 255 255
28.8 9.8 0.7 255 255 255
28.7 9.8 0.7 255 255 253
28.6 9.8 0.9 255 255 251
28.5 9.8 1 255 254 249
28.4 9.8 0.8 255 255 250
28.3 9.8 0.6 255 255 250
28.2 9.8 0.7 255 252 248
28.1 9.8 1.2 255 252 249
28 9.8 1.6 255 252 251
27.9 9.8 2.5 147 137 136
27.8 9.8 2.6 55 47 45
27.7 9.8 2.7 107 99 97
27.6 9.8 2.7 128 123 120
27.5 9.8 2.7 129 125 122
27.4 9.8 2.7 71 70 68
27.3 9.8 2.8 67 67 65
27.2 9.8 2.8 139 139 137
27.1 9.8 3.2 135 136 138
27 9.8 3.3 140 143 150
26.9 9.8 3.4 169 171 183
26.8 9.8 3.4 136 136 144
26.7 9.8 3.4 143 142 148
26.6 9.8 3.5 150 148 151
26.5 9.8 3.7 149 148 146
26.4 9.8 3.9 152 148 145
26.3 9.8 4 159 155 152
26.2 9.8 3.9 129 125 124
26.1 9.8 4.2 78 76 79
26 9.8 4.9 116 113 120
25.9 9.8 5.4 191 189 202
25.8 9.8 5.6 133 132 148
25.7 9.8 6 60 61 82
51.2 9.7 6.3 38 40 65
51.1 9.7 8.4 64 65 69
51 9.7 8.4 128 130 143
50.9 9.7 8.4 156 155 173
50.8 9.7 8.4 169 163 177
50.7 9.7 8.5 64 52 64
50.6 9.7 8.6 89 72 80
50.5 9.7 8.7 118 99 105
50.4 9.7 8.8 76 59 65
50.3 9.7 8.8 46 33 40
50.2 9.7 8.9 54 47 55
50.1 9.7 8.9 102 102 110
50 9.7 8.9 82 89 97
49.9 9.7 8.9 165 174 181
49.8 9.7 8.8 168 177 182
49.7 9.7 8.8 171 181 182
49.6 9.7 8.7 181 187 187
49.5 9.7 8.9 175 181 179
49.4 9.7 8.9 173 182 179
49.3 9.7 8.9 170 176 172
49.2 9.7 8.9 174 174 174
49.1 9.7 8.9 183 179 178
49 9.7 8.9 117 107 108
48.9 9.7 8.9 89 77 79
48.8 9.7 8.9 109 94 97
48.7 9.7 8.9 111 96 99
48.6 9.7 8.9 112 97 100
48.5 9.7 8.9 136 124 124
48.4 9.7 8.9 123 113 112
48.3 9.7 8.9 140 132 130
48.2 9.7 9 144 134 133
48.1 9.7 9 124 114 113
48 9.7 9 143 131 131
47.9 9.7 8.9 142 126 126
47.8 9.7 8.9 157 136 131
47.7 9.7 8.9 152 132 125
47.6 9.7 8.8 144 126 122
47.5 9.7 8.8 150 136 135
47.4 9.7 8.7 144 134 135
47.3 9.7 8.7 135 126 129
47.2 9.7 8.7 133 124 127
47.1 9.7 8.4 118 109 112
47 9.7 8.4 126 117 118
46.9 9.7 8.3 113 103 102
46.8 9.7 8.2 112 102 100
46.7 9.7 8.1 117 109 106
46.6 9.7 8 97 92 89
46.5 9.7 7.9 107 103 102
46.4 9.7 7.9 155 153 154
46.3 9.7 7.9 172 170 173
46.2 9.7 7.9 178 173 177
46.1 9.7 7.8 178 172 176
46 9.7 7.7 180 171 176
45.9 9.7 7.6 154 143 149
45.8 9.7 7.5 78 67 73
45.7 9.7 7.4 83 70 77
45.6 9.7 7.4 92 76 86
45.5 9.7 7.2 71 54 64
45.4 9.7 7.2 55 38 48
45.3 9.7 7.2 36 18 30
45.2 9.7 7.1 124 106 118
45.1 9.7 7 134 116 128
45 9.7 6.9 156 138 152
44.9 9.7 6.7 145 127 141
44.8 9.7 6.6 55 39 52
44.7 9.7 6.4 49 31 43
44.6 9.7 6.4 82 61 68
44.5 9.7 6.4 80 58 61
44.4 9.7 6.3 91 69 71
44.3 9.7 5.9 79 58 57
44.2 9.7 5.4 44 23 22
44.1 9.7 5 54 33 30
44 9.7 4.7 98 77 72
43.9 9.7 4.7 117 98 92
43.8 9.7 4.6 106 89 82
43.7 9.7 4.6 123 108 103
43.6 9.7 4.6 118 107 103
43.5 9.7 4.7 84 76 73
43.4 9.7 4.7 60 56 55
43.3 9.7 4.5 67 65 66
43.2 9.7 4.4 83 83 85
43.1 9.7 4.2 90 90 92
43 9.7 3.9 159 153 153
42.9 9.7 3.6 174 165 166
42.8 9.7 3.4 152 143 144
42.7 9.7 3.2 137 128 131
42.6 9.7 3 102 93 98
42.5 9.7 2.8 92 85 92
42.4 9.7 2.6 114 107 115
42.3 9.7 2.4 152 146 156
42.2 9.7 2.1 180 174 184
42.1 9.7 1.7 226 223 230
42 9.7 1.4 255 253 255
41.9 9.7 1.2 249 248 253
41.8 9.7 1.2 244 244 246
41.7 9.7 1.1 255 255 255
41.6 9.7 1 255 255 253
41.5 9.7 0.9 251 251 249
41.4 9.7 0.8 255 255 255
41.3 9.7 0.8 255 255 255
41.2 9.7 0.8 255 255 255
41.1 9.7 0.8 255 255 255
41 9.7 0.7 255 255 255
40.9 9.7 0.7 255 255 255
40.8 9.7 0.7 255 255 255
40.7 9.7 0.7 255 255 255
40.6 9.7 0.7 255 255 255
40.5 9.7 0.7 255 255 255
40.4 9.7 0.7 255 255 255
40.3 9.7 0.7 255 255 255
40.2 9.7 0.7 255 255 255
40.1 9.7 0.7 255 255 255
40 9.7 0.7 255 255 255
39.9 9.7 0.8 255 255 255
39.8 9.7 0.8 255 255 255
39.7 9.7 0.8 255 255 255
39.6 9.7 0.8 255 255 255
39.5 9.7 0.8 255 255 255
39.4 9.7 0.8 255 255 255
39.3 9.7 0.8 255 255 255
39.2 9.7 0.8 255 255 255
39.1 9.7 0.7 255 255 255
39 9.7 0.7 255 255 255
38.9 9.7 0.7 255 255 255
38.8 9.7 0.7 255 255 255
38.7 9.7 0.7 255 255 255
38.6 9.7 0.7 255 255 255
38.5 9.7 0.7 255 255 255
38.4 9.7 0.7 255 255 255
38.3 9.7 0.7 255 255 255
38.2 9.7 0.7 254 255 255
38.1 9.7 0.7 254 255 255
38 9.7 0.7 254 255 255
37.9 9.7 0.7 254 255 255
37.8 9.7 0.7 255 255 255
37.7 9.7 0.7 255 255 255
37.6 9.7 0.7 255 255 255
37.5 9.7 0.7 255 255 255
37.4 9.7 0.7 255 255 255
37.3 9.7 0.7 255 255 255
37.2 9.7 0.7 255 255 255
37.1 9.7 0.7 255 255 255
37 9.7 0.7 255 255 255
36.9 9.7 0.7 255 255 255
36.8 9.7 0.7 255 255 255
36.7 9.7 0.7 255 255 255
36.6 9.7 0.7 255 255 255
36.5 9.7 0.7 255 255 255
36.4 9.7 0.7 255 255 255
36.3 9.7 0.7 255 255 255
36.2 9.7 0.7 255 255 255
36.1 9.7 0.7 255 255 255
36 9.7 0.7 255 255 255
35.9 9.7 0.9 255 255 255
35.8 9.7 0.9 255 255 255
35.7 9.7 0.9 255 255 255
35.6 9.7 0.8 255 255 255
35.5 9.7 0.8 255 255 255
35.4 9.7 0.7 255 255 255
35.3 9.7 0.7 255 255 255
35.2 9.7 0.7 255 255 255
35.1 9.7 0.8 255 255 255
35 9.7 0.8 255 255 255
34.9 9.7 0.8 255 255 255
34.8 9.7 0.8 255 255 255
34.7 9.7 0.8 255 255 255
34.6 9.7 0.8 255 255 255
34.5 9.7 0.8 255 255 255
34.4 9.7 0.8 255 255 255
34.3 9.7 0.9 255 255 255
34.2 9.7 0.9 255 255 255
34.1 9.7 0.9 255 255 255
34 9.7 0.8 255 255 255
33.9 9.7 0.8 255 255 255
33.8 9.7 0.8 255 255 255
33.7 9.7 0.8 255 255 255
33.6 9.7 0.7 255 255 255
33.5 9.7 0.9 255 255 255
33.4 9.7 0.9 255 255 255
33.3 9.7 0.9 255 255 255
33.2 9.7 0.9 255 255 255
33.1 9.7 0.9 255 255 255
33 9.7 0.9 255 255 255
32.9 9.7 0.9 255 255 255
32.8 9.7 0.9 255 255 255
32.7 9.7 0.8 255 255 255
32.6 9.7 0.8 255 255 255
32.5 9.7 0.8 255 255 255
32.4 9.7 0.8 255 255 255
32.3 9.7 0.8 255 255 255
32.2 9.7 0.8 255 255 255
32.1 9.7 0.8 255 255 255
32 9.7 0.8 255 254 255
31.9 9.7 0.7 255 255 255
31.8 9.7 0.7 255 255 255
31.7 9.7 0.7 254 255 255
31.6 9.7 0.7 255 255 255
31.5 9.7 0.7 255 255 255
31.4 9.7 0.7 255 255 255
31.3 9.7 0.7 255 255 255
31.2 9.7 0.7 255 255 255
31.1 9.7 0.7 255 255 255
31 9.7 0.8 255 255 255
30.9 9.7 0.8 255 255 255
30.8 9.7 0.9 255 255 255
30.7 9.7 0.9 255 255 255
30.6 9.7 0.8 255 255 255
30.5 9.7 0.8 255 255 255
30.4 9.7 0.7 255 255 255
30.3 9.7 0.7 255 255 255
30.2 9.7 0.7 255 255 255
30.1 9.7 0.6 255 255 255
30 9.7 0.6 255 255 255
29.9 9.7 0.7 255 255 255
29.8 9.7 0.8 255 255 255
29.7 9.7 0.9 255 255 253
29.6 9.7 0.9 255 255 253
29.5 9.7 0.9 255 255 253
29.4 9.7 0.9 255 255 253
29.3 9.7 0.9 254 255 255
29.2 9.7 0.8 254 255 255
29.1 9.7 0.8 254 255 255
29 9.7 0.7 254 255 255
28.9 9.7 0.7 254 255 255
28.8 9.7 0.7 254 255 255
28.7 9.7 0.7 254 255 255
28.6 9.7 0.9 255 255 253
28.5 9.7 0.9 255 255 251
28.4 9.7 0.7 253 252 248
28.3 9.7 0.5 255 254 250
28.2 9.7 0.7 254 249 246
28.1 9.7 1.3 255 253 250
28 9.7 1.8 251 243 241
27.9 9.7 2.6 82 74 72
27.8 9.7 2.6 82 74 72
27.7 9.7 2.6 137 132 129
27.6 9.7 2.6 125 121 118
27.5 9.7 2.7 125 121 118
27.4 9.7 2.7 80 79 77
27.3 9.7 2.8 95 95 93
27.2 9.7 2.8 122 122 120
27.1 9.7 3.2 154 155 157
27 9.7 3.3 160 163 172
26.9 9.7 3.4 148 150 162
26.8 9.7 3.5 119 119 127
26.7 9.7 3.4 161 160 166
26.6 9.7 3.5 138 136 139
26.5 9.7 3.8 124 120 121
26.4 9.7 3.9 160 154 154
26.3 9.7 3.9 168 162 162
26.2 9.7 3.9 129 123 125
26.1 9.7 4.4 72 66 70
26 9.7 5.4 65 59 69
25.9 9.7 6.1 92 88 102
25.8 9.7 6.2 46 43 62
25.7 9.7 6.3 51 49 73
51.2 9.6 11.167 82 82 110
51.1 9.6 8.8 71 75 78
51 9.6 8.8 156 166 176
50.9 9.6 8.8 167 175 188
50.8 9.6 8.8 153 149 163
50.7 9.6 8.8 48 34 47
50.6 9.6 8.8 93 69 82
50.5 9.6 8.8 133 105 117
50.4 9.6 8.8 102 76 87
50.3 9.6 8.8 82 65 75
50.2 9.6 8.8 61 53 64
50.1 9.6 8.9 92 95 104
50 9.6 9 68 81 87
49.9 9.6 9.1 150 168 172
49.8 9.6 9.1 168 186 188
49.7 9.6 9.1 177 191 191
49.6 9.6 9 164 174 173
49.5 9.6 9 179 188 185
49.4 9.6 9 178 184 180
49.3 9.6 9 175 177 172
49.2 9.6 9 143 143 141
49.1 9.6 9 108 107 103
49 9.6 9 107 103 100
48.9 9.6 9 125 121 118
48.8 9.6 9 137 132 129
48.7 9.6 9.1 140 135 131
48.6 9.6 9.1 145 140 136
48.5 9.6 9.1 147 142 138
48.4 9.6 9.1 138 133 129
48.3 9.6 9 128 123 119
48.2 9.6 9 123 118 112
48.1 9.6 9 113 108 102
48 9.6 9 100 95 89
47.9 9.6 8.9 99 90 83
47.8 9.6 8.9 101 88 80
47.7 9.6 8.9 96 81 74
47.6 9.6 8.8 97 84 76
47.5 9.6 8.7 108 97 91
47.4 9.6 8.6 115 106 101
47.3 9.6 8.6 114 106 103
47.2 9.6 8.5 116 108 105
47.1 9.6 8.5 123 115 112
47 9.6 8.4 123 115 112
46.9 9.6 8.2 134 129 125
46.8 9.6 8.1 131 126 120
46.7 9.6 8.1 126 121 115
46.6 9.6 8.1 130 127 122
46.5 9.6 7.9 121 120 115
46.4 9.6 7.8 114 113 108
46.3 9.6 7.7 126 122 119
46.2 9.6 7.7 177 171 173
46.1 9.6 7.7 187 178 181
46 9.6 7.6 182 171 175
45.9 9.6 7.5 140 129 133
45.8 9.6 7.4 78 67 71
45.7 9.6 7.4 61 49 53
45.6 9.6 7.3 87 74 81
45.5 9.6 7.2 105 90 97
45.4 9.6 7.2 95 80 87
45.3 9.6 7.1 62 46 56
45.2 9.6 7 93 77 88
45.1 9.6 6.9 88 72 85
45 9.6 6.8 105 87 103
44.9 9.6 6.7 111 92 111
44.8 9.6 6.7 78 59 78
44.7 9.6 6.6 40 21 40
44.6 9.6 6.5 84 64 76
44.5 9.6 6.2 69 49 60
44.4 9.6 6.1 77 56 65
44.3 9.6 6 91 68 76
44.2 9.6 5.9 66 43 51
44.1 9.6 5.7 84 59 65
44 9.6 5.5 79 54 58
43.9 9.6 5 68 43 47
43.8 9.6 4.8 109 87 90
43.7 9.6 4.6 133 114 116
43.6 9.6 4.4 128 114 114
43.5 9.6 4.4 93 83 84
43.4 9.6 4.3 81 75 75
43.3 9.6 4.1 84 80 81
43.2 9.6 4 104 104 106
43.1 9.6 4.1 91 91 93
43 9.6 3.9 117 113 112
42.9 9.6 3.5 141 135 135
42.8 9.6 3.3 142 136 138
42.7 9.6 3.1 152 146 150
42.6 9.6 3 128 121 129
42.5 9.6 2.7 95 89 99
42.4 9.6 2.6 131 125 137
42.3 9.6 2.5 141 135 147
42.2 9.6 2.2 151 145 157
42.1 9.6 1.8 226 220 232
42 9.6 1.3 255 253 255
41.9 9.6 1 255 253 255
41.8 9.6 0.9 248 246 249
41.7 9.6 0.9 255 253 254
41.6 9.6 1 255 255 251
41.5 9.6 0.9 250 249 245
41.4 9.6 0.9 255 254 255
41.3 9.6 0.9 255 254 255
41.2 9.6 0.9 255 254 255
41.1 9.6 0.9 255 254 255
41 9.6 0.8 255 254 255
40.9 9.6 0.8 255 253 255
40.8 9.6 0.8 255 253 255
40.7 9.6 0.8 255 253 255
40.6 9.6 0.8 255 253 255
40.5 9.6 0.8 255 253 255
40.4 9.6 0.7 255 253 255
40.3 9.6 0.7 255 253 255
40.2 9.6 0.7 255 253 255
40.1 9.6 0.7 255 253 255
40 9.6 0.7 255 253 255
39.9 9.6 0.7 254 254 255
39.8 9.6 0.7 255 255 255
39.7 9.6 0.7 254 255 255
39.6 9.6 0.7 254 255 255
39.5 9.6 0.7 254 255 255
39.4 9.6 0.7 254 255 255
39.3 9.6 0.7 254 255 255
39.2 9.6 0.7 254 255 255
39.1 9.6 0.7 254 255 255
39 9.6 0.7 254 255 255
38.9 9.6 0.7 254 255 255
38.8 9.6 0.7 254 255 255
38.7 9.6 0.7 254 255 255
38.6 9.6 0.7 254 255 255
38.5 9.6 0.7 254 255 255
38.4 9.6 0.7 253 254 255
38.3 9.6 0.9 253 254 255
38.2 9.6 0.9 251 255 255
38.1 9.6 0.9 251 255 255
38 9.6 0.9 251 255 255
37.9 9.6 0.9 251 255 255
37.8 9.6 0.9 252 253 255
37.7 9.6 0.9 252 253 255
37.6 9.6 0.9 252 253 255
37.5 9.6 0.8 252 253 255
37.4 9.6 0.8 255 255 255
37.3 9.6 0.8 255 255 255
37.2 9.6 0.8 255 255 253
37.1 9.6 0.8 255 255 253
37 9.6 0.8 255 255 253
36.9 9.6 0.8 255 255 253
36.8 9.6 0.8 255 255 253
36.7 9.6 1 255 255 253
36.6 9.6 1 255 254 255
36.5 9.6 0.9 255 254 255
36.4 9.6 0.9 255 254 255
36.3 9.6 0.8 255 254 255
36.2 9.6 0.7 255 255 255
36.1 9.6 0.7 255 255 255
36 9.6 0.6 254 254 255
35.9 9.6 0.7 254 254 255
35.8 9.6 0.7 255 255 255
35.7 9.6 0.7 255 255 255
35.6 9.6 0.7 254 255 255
35.5 9.6 0.7 254 255 255
35.4 9.6 0.7 254 255 255
35.3 9.6 0.6 254 255 255
35.2 9.6 0.6 254 255 255
35.1 9.6 0.6 254 255 255
35 9.6 0.6 255 255 255
34.9 9.6 0.7 255 255 255
34.8 9.6 0.7 255 255 255
34.7 9.6 0.8 255 255 255
34.6 9.6 0.9 255 255 255
34.5 9.6 0.9 255 255 255
34.4 9.6 1 255 255 255
34.3 9.6 0.9 255 255 255
34.2 9.6 0.9 255 255 255
34.1 9.6 1 255 255 255
34 9.6 1 255 255 255
33.9 9.6 1 255 255 255
33.8 9.6 1 255 255 255
33.7 9.6 1.1 255 255 255
33.6 9.6 1.1 255 255 255
33.5 9.6 1.1 255 255 255
33.4 9.6 1.1 254 255 255
33.3 9.6 1 254 255 255
33.2 9.6 1 254 255 255
33.1 9.6 0.9 254 255 255
33 9.6 0.8 254 255 255
32.9 9.6 0.8 254 255 255
32.8 9.6 0.7 255 255 255
32.7 9.6 0.9 255 255 255
32.6 9.6 0.9 255 254 255
32.5 9.6 0.9 255 254 255
32.4 9.6 0.8 255 254 255
32.3 9.6 0.7 255 254 255
32.2 9.6 0.7 255 254 255
32.1 9.6 0.6 255 254 255
32 9.6 0.6 255 254 255
31.9 9.6 0.7 255 254 255
31.8 9.6 0.7 254 255 255
31.7 9.6 0.7 252 255 255
31.6 9.6 0.7 254 255 255
31.5 9.6 0.7 254 255 255
31.4 9.6 0.8 254 255 255
31.3 9.6 0.8 253 254 255
31.2 9.6 0.8 253 254 255
31.1 9.6 0.9 253 254 255
31 9.6 0.9 254 255 255
30.9 9.6 0.9 254 255 255
30.8 9.6 0.9 255 254 255
30.7 9.6 0.9 255 254 255
30.6 9.6 0.9 255 254 255
30.5 9.6 0.9 255 254 255
30.4 9.6 0.9 255 254 255
30.3 9.6 0.7 255 254 255
30.2 9.6 0.7 254 253 255
30.1 9.6 0.7 254 254 255
30 9.6 0.7 254 254 255
29.9 9.6 0.7 254 254 254
29.8 9.6 0.7 253 255 252
29.7 9.6 0.7 253 255 250
29.6 9.6 0.7 254 255 251
29.5 9.6 0.9 254 255 251
29.4 9.6 0.7 249 251 246
29.3 9.6 0.7 252 255 253
29.2 9.6 0.3 252 255 255
29.1 9.6 1 252 255 255
29 9.6 0.6 249 252 255
28.9 9.6 2.4 242 245 254
28.8 9.6 1 219 223 234
28.7 9.6 0.5 251 255 255
28.6 9.6 0.1 251 255 255
28.5 9.6 1.4 250 254 255
28.4 9.6 0.8 248 250 249
28.3 9.6 0.1 254 255 255
28.2 9.6 1.1 255 255 253
28.1 9.6 1.3 251 250 246
28 9.6 1.7 214 210 207
27.9 9.6 2.7 53 48 45
27.8 9.6 2.7 69 64 60
27.7 9.6 2.7 95 90 86
27.6 9.6 2.8 152 148 145
27.5 9.6 2.8 150 146 143
27.4 9.6 2.9 91 90 88
27.3 9.6 2.9 103 103 101
27.2 9.6 2.9 125 125 125
27.1 9.6 3.2 162 163 167
27 9.6 3.4 152 157 163
26.9 9.6 3.5 114 121 127
26.8 9.6 3.5 152 155 162
26.7 9.6 3.5 118 119 124
26.6 9.6 3.5 63 58 64
26.5 9.6 3.7 139 133 137
26.4 9.6 3.8 163 152 158
26.3 9.6 4.2 163 150 157
26.2 9.6 4.9 137 124 133
26.1 9.6 5.7 65 53 65
26 9.6 5.9 42 31 47
25.9 9.6 5.7 56 49 67
25.8 9.6 5.9 54 49 72
25.7 9.6 6.7 111 108 135
51.2 9.5 11.7 126 125 156
51.1 9.5 8.8 67 71 74
51 9.5 8.8 134 147 155
50.9 9.5 8.8 112 122 132
50.8 9.5 8.8 113 111 122
50.7 9.5 8.8 73 60 70
50.6 9.5 8.8 66 40 51
50.5 9.5 8.8 83 53 65
50.4 9.5 8.8 111 83 95
50.3 9.5 8.8 82 62 73
50.2 9.5 8.8 62 54 65
50.1 9.5 8.9 99 103 112
50 9.5 9 65 80 85
49.9 9.5 9.1 136 155 159
49.8 9.5 9.1 153 173 174
49.7 9.5 9.1 164 180 179
49.6 9.5 9 165 177 175
49.5 9.5 9.1 178 184 180
49.4 9.5 9.1 172 177 171
49.3 9.5 9.1 165 167 162
49.2 9.5 9.1 143 144 139
49.1 9.5 9.1 124 125 120
49 9.5 9.1 119 120 114
48.9 9.5 9.1 116 117 111
48.8 9.5 9.1 113 112 107
48.7 9.5 9.1 117 116 111
48.6 9.5 9.1 106 106 98
48.5 9.5 9.1 90 90 82
48.4 9.5 9.1 87 84 77
48.3 9.5 9 98 95 88
48.2 9.5 9 101 98 89
48.1 9.5 9 92 89 80
48 9.5 9 92 89 80
47.9 9.5 9 105 101 92
47.8 9.5 8.9 110 101 92
47.7 9.5 8.9 104 95 86
47.6 9.5 8.8 100 90 81
47.5 9.5 8.7 98 89 80
47.4 9.5 8.6 97 88 81
47.3 9.5 8.6 94 87 79
47.2 9.5 8.5 94 87 79
47.1 9.5 8.5 94 90 81
47 9.5 8.4 97 92 86
46.9 9.5 8.2 107 104 97
46.8 9.5 8.1 106 103 96
46.7 9.5 8.2 109 106 99
46.6 9.5 8.1 122 122 114
46.5 9.5 7.9 129 129 121
46.4 9.5 7.8 134 134 126
46.3 9.5 7.8 152 149 144
46.2 9.5 7.7 181 172 173
46.1 9.5 7.7 163 152 156
46 9.5 7.6 192 181 185
45.9 9.5 7.5 100 90 91
45.8 9.5 7.4 55 45 46
45.7 9.5 7.4 90 80 81
45.6 9.5 7.3 76 64 68
45.5 9.5 7.2 140 128 132
45.4 9.5 7.2 128 115 122
45.3 9.5 7.1 90 75 82
45.2 9.5 7 130 114 125
45.1 9.5 6.9 134 118 131
45 9.5 6.8 78 61 77
44.9 9.5 6.7 70 53 71
44.8 9.5 6.7 70 51 71
44.7 9.5 6.6 72 55 74
44.6 9.5 6.4 95 77 93
44.5 9.5 6.2 72 54 66
44.4 9.5 6.1 90 70 82
44.3 9.5 6 85 63 75
44.2 9.5 5.8 61 38 48
44.1 9.5 5.6 76 50 61
44 9.5 5.4 104 78 87
43.9 9.5 5.1 94 68 77
43.8 9.5 4.9 49 26 32
43.7 9.5 4.6 115 94 99
43.6 9.5 4.4 139 123 126
43.5 9.5 4.4 141 129 133
43.4 9.5 4.3 130 121 124
43.3 9.5 4.1 74 69 73
43.2 9.5 4 66 64 67
43.1 9.5 4.1 114 112 115
43 9.5 3.9 151 147 148
42.9 9.5 3.5 161 157 158
42.8 9.5 3.3 138 133 137
42.7 9.5 3.1 142 137 143
42.6 9.5 3 149 143 153
42.5 9.5 2.7 129 123 135
42.4 9.5 2.6 136 130 144
42.3 9.5 2.4 145 139 153
42.2 9.5 2.2 142 136 150
42.1 9.5 1.8 155 149 161
42 9.5 1.5 183 177 187
41.9 9.5 1.2 211 209 214
41.8 9.5 1 255 253 255
41.7 9.5 0.9 252 250 251
41.6 9.5 0.9 255 254 250
41.5 9.5 0.9 255 255 251
41.4 9.5 0.9 255 254 255
41.3 9.5 0.9 255 255 255
41.2 9.5 0.9 255 254 255
41.1 9.5 0.9 255 255 255
41 9.5 0.8 255 254 255
40.9 9.5 0.8 254 254 255
40.8 9.5 0.8 255 253 255
40.7 9.5 0.8 254 254 255
40.6 9.5 0.8 255 253 255
40.5 9.5 0.8 254 254 255
40.4 9.5 0.7 255 253 255
40.3 9.5 0.7 254 254 255
40.2 9.5 0.7 255 253 255
40.1 9.5 0.7 254 254 255
40 9.5 0.7 255 253 255
39.9 9.5 0.7 254 254 255
39.8 9.5 0.7 254 255 255
39.7 9.5 0.7 254 255 255
39.6 9.5 0.7 254 255 255
39.5 9.5 0.7 254 255 255
39.4 9.5 0.7 254 255 255
39.3 9.5 0.7 254 255 255
39.2 9.5 0.7 254 255 255
39.1 9.5 0.7 254 255 255
39 9.5 0.7 254 255 255
38.9 9.5 0.7 254 255 255
38.8 9.5 0.7 254 255 255
38.7 9.5 0.7 254 255 255
38.6 9.5 0.7 254 255 255
38.5 9.5 0.7 253 254 255
38.4 9.5 0.7 253 254 255
38.3 9.5 0.8 251 255 255
38.2 9.5 0.8 250 255 255
38.1 9.5 0.8 250 255 255
38 9.5 0.8 250 255 255
37.9 9.5 0.8 249 254 255
37.8 9.5 0.8 250 254 255
37.7 9.5 0.8 250 254 255
37.6 9.5 0.8 250 254 255
37.5 9.5 0.8 252 253 255
37.4 9.5 0.8 254 255 255
37.3 9.5 0.8 254 255 255
37.2 9.5 0.8 254 255 253
37.1 9.5 0.8 255 255 253
37 9.5 0.8 255 255 253
36.9 9.5 0.8 255 255 253
36.8 9.5 0.8 255 255 253
36.7 9.5 1 255 255 253
36.6 9.5 0.9 255 254 255
36.5 9.5 0.9 255 255 255
36.4 9.5 0.8 255 254 255
36.3 9.5 0.8 255 255 255
36.2 9.5 0.7 255 255 255
36.1 9.5 0.7 255 255 255
36 9.5 0.6 254 254 255
35.9 9.5 0.7 254 254 255
35.8 9.5 0.7 255 255 255
35.7 9.5 0.7 255 255 255
35.6 9.5 0.6 254 255 255
35.5 9.5 0.6 254 255 255
35.4 9.5 0.6 254 255 255
35.3 9.5 0.5 254 255 255
35.2 9.5 0.5 254 255 255
35.1 9.5 0.5 254 255 255
35 9.5 0.5 255 255 255
34.9 9.5 0.6 255 255 255
34.8 9.5 0.7 255 255 255
34.7 9.5 0.7 255 255 255
34.6 9.5 0.8 255 255 255
34.5 9.5 0.8 255 255 255
34.4 9.5 0.9 255 255 255
34.3 9.5 0.9 255 255 255
34.2 9.5 0.9 255 255 255
34.1 9.5 1 255 255 255
34 9.5 1 255 255 255
33.9 9.5 1 255 255 255
33.8 9.5 1 255 255 255
33.7 9.5 1.1 255 255 255
33.6 9.5 1.1 255 255 255
