ply
format ascii 1.0
comment VCGLIB generated
element vertex 1753
property float x
property float y
property float z
property uchar red
property uchar green
property uchar blue
element face 0
property list uchar int vertex_indices
end_header
26 33.2 4.643 144 140 128
25.9 33.2 4.643 147 143 131
25.8 33.2 4.643 149 145 133
25.7 33.2 4.632 145 141 129
51.2 33.1 5.2 132 128 116
51.1 33.1 12.541 239 194 39
51 33.1 12.541 156 133 57
50.9 33.1 12.565 121 111 76
50.8 33.1 12.565 110 101 72
50.7 33.1 12.593 128 120 97
50.6 33.1 12.593 95 88 72
50.5 33.1 12.593 84 78 66
50.4 33.1 12.545 140 136 127
50.3 33.1 12.5 139 137 125
50.2 33.1 12.405 100 98 86
50.1 33.1 12.332 99 97 82
50 33.1 12.189 79 76 59
49.9 33.1 12.118 66 63 44
49.8 33.1 12.024 84 79 60
49.7 33.1 11.976 75 68 52
49.6 33.1 11.929 119 109 97
49.5 33.1 11.859 135 123 111
49.4 33.1 11.812 136 124 110
49.3 33.1 11.812 133 121 105
49.2 33.1 11.787 158 146 130
49.1 33.1 11.741 152 140 124
49 33.1 11.671 143 131 115
48.9 33.1 11.598 138 126 110
48.8 33.1 11.529 138 129 112
48.7 33.1 11.431 146 137 120
48.6 33.1 11.362 146 137 120
48.5 33.1 11.312 125 116 99
48.4 33.1 11.241 105 98 80
48.3 33.1 11.197 95 88 70
48.2 33.1 11.146 115 108 90
48.1 33.1 11.079 104 97 79
48 33.1 10.965 103 96 78
47.9 33.1 10.8 144 137 119
47.8 33.1 10.672 138 133 114
47.7 33.1 10.654 143 138 119
47.6 33.1 10.606 143 138 119
47.5 33.1 10.565 137 134 115
47.4 33.1 10.512 92 89 70
47.3 33.1 10.435 84 83 63
47.2 33.1 10.346 91 90 70
47.1 33.1 10.262 73 72 52
47 33.1 10.181 62 61 41
46.9 33.1 10.126 88 87 67
46.8 33.1 10.071 114 111 92
46.7 33.1 10.008 121 118 99
46.6 33.1 9.96 120 113 95
46.5 33.1 9.929 120 113 95
46.4 33.1 9.881 123 114 97
46.3 33.1 9.723 124 115 98
46.2 33.1 9.676 118 111 93
46.1 33.1 9.661 127 120 102
46 33.1 9.638 136 129 111
45.9 33.1 9.567 139 132 114
45.8 33.1 9.529 136 129 111
45.7 33.1 9.439 134 127 109
45.6 33.1 9.402 137 130 112
45.5 33.1 9.296 141 134 116
45.4 33.1 9.236 141 134 116
45.3 33.1 9.202 142 135 117
45.2 33.1 9.154 144 137 119
45.1 33.1 9.094 146 139 121
45 33.1 9.071 146 139 121
44.9 33.1 9.012 146 139 121
44.8 33.1 8.976 146 139 121
44.7 33.1 8.906 145 138 120
44.6 33.1 8.87 147 140 122
44.5 33.1 8.833 145 138 120
44.4 33.1 8.833 143 136 120
44.3 33.1 8.764 140 133 115
44.2 33.1 8.727 138 131 113
44.1 33.1 8.727 138 131 113
44 33.1 8.68 137 130 112
43.9 33.1 8.632 138 131 113
43.8 33.1 8.595 137 130 112
43.7 33.1 8.534 136 129 111
43.6 33.1 8.51 134 127 109
43.5 33.1 8.448 132 125 107
43.4 33.1 8.448 131 124 106
43.3 33.1 8.405 133 126 108
43.2 33.1 8.405 138 131 113
43.1 33.1 8.367 141 134 118
43 33.1 8.319 136 129 113
42.9 33.1 8.262 142 135 119
42.8 33.1 8.262 143 136 120
42.7 33.1 8.199 140 133 117
42.6 33.1 8.199 143 137 123
42.5 33.1 8.158 142 139 124
42.4 33.1 8.119 129 126 111
42.3 33.1 8.063 109 107 92
42.2 33.1 8.024 102 100 87
42.1 33.1 7.961 110 111 97
42 33.1 7.921 118 119 105
41.9 33.1 7.882 121 122 108
41.8 33.1 7.882 127 128 114
41.7 33.1 7.819 137 138 124
41.6 33.1 7.819 141 143 130
41.5 33.1 7.793 140 142 129
41.4 33.1 7.793 142 142 132
41.3 33.1 7.731 144 144 134
41.2 33.1 7.731 140 137 128
41.1 33.1 7.69 135 132 123
41 33.1 7.69 140 137 128
40.9 33.1 7.649 141 138 129
40.8 33.1 7.649 141 139 127
40.7 33.1 7.571 148 146 134
40.6 33.1 7.571 144 140 129
40.5 33.1 7.548 141 137 126
40.4 33.1 7.482 138 134 122
40.3 33.1 7.447 136 132 120
40.2 33.1 7.447 137 131 119
40.1 33.1 7.447 138 132 120
40 33.1 7.417 138 132 120
39.9 33.1 7.31 139 133 121
39.8 33.1 7.252 138 132 120
39.7 33.1 7.233 153 147 135
39.6 33.1 7.214 165 159 147
39.5 33.1 7.209 164 158 146
39.4 33.1 7.209 160 154 142
39.3 33.1 7.176 160 154 142
39.2 33.1 7.176 159 153 139
39.1 33.1 7.11 155 149 135
39 33.1 7.067 152 146 132
38.9 33.1 7.016 152 146 132
38.8 33.1 7.016 150 144 128
38.7 33.1 6.972 149 143 127
38.6 33.1 6.969 153 147 131
38.5 33.1 6.945 157 151 135
38.4 33.1 6.925 153 146 130
38.3 33.1 6.874 145 138 122
38.2 33.1 6.83 154 147 129
38.1 33.1 6.783 154 147 129
38 33.1 6.783 155 148 130
37.9 33.1 6.732 140 133 115
37.8 33.1 6.732 112 103 86
37.7 33.1 6.709 102 93 76
37.6 33.1 6.709 111 102 87
37.5 33.1 6.635 117 108 93
37.4 33.1 6.591 133 121 107
37.3 33.1 6.522 127 115 101
37.2 33.1 6.522 135 123 111
37.1 33.1 6.518 124 112 100
37 33.1 6.518 98 86 74
36.9 33.1 6.494 69 57 45
36.8 33.1 6.449 97 83 72
36.7 33.1 6.402 137 125 113
36.6 33.1 6.356 185 175 165
36.5 33.1 6.356 188 179 170
36.4 33.1 6.356 185 176 167
36.3 33.1 6.308 175 166 157
36.2 33.1 6.286 172 163 154
36.1 33.1 6.237 176 167 158
36 33.1 6.213 173 164 155
35.9 33.1 6.166 164 155 146
35.8 33.1 6.166 162 153 144
35.7 33.1 6.142 172 163 154
35.6 33.1 6.071 179 170 161
35.5 33.1 6.024 178 169 160
35.4 33.1 6.024 172 163 154
35.3 33.1 6.024 170 161 152
35.2 33.1 6.024 168 159 150
35.1 33.1 5.929 166 159 149
35 33.1 5.929 155 150 144
34.9 33.1 5.905 153 150 143
34.8 33.1 5.905 143 140 133
34.7 33.1 5.882 136 133 126
34.6 33.1 5.881 138 135 128
34.5 33.1 5.857 136 133 126
34.4 33.1 5.857 131 128 121
34.3 33.1 5.81 133 130 123
34.2 33.1 5.81 120 117 110
34.1 33.1 5.81 125 122 115
34 33.1 5.81 146 143 136
33.9 33.1 5.739 173 170 163
33.8 33.1 5.739 180 177 170
33.7 33.1 5.739 170 167 160
33.6 33.1 5.737 166 163 156
33.5 33.1 5.688 173 170 163
33.4 33.1 5.687 168 165 156
33.3 33.1 5.687 166 163 154
33.2 33.1 5.687 165 162 153
33.1 33.1 5.618 166 163 154
33 33.1 5.618 168 165 156
32.9 33.1 5.568 168 165 156
32.8 33.1 5.568 166 162 151
32.7 33.1 5.568 163 159 148
32.6 33.1 5.568 163 159 148
32.5 33.1 5.496 170 166 155
32.4 33.1 5.496 175 169 157
32.3 33.1 5.45 172 166 154
32.2 33.1 5.45 169 163 151
32.1 33.1 5.45 172 166 154
32 33.1 5.45 176 170 158
31.9 33.1 5.362 179 173 161
31.8 33.1 5.362 182 175 165
31.7 33.1 5.333 175 168 158
31.6 33.1 5.333 170 163 153
31.5 33.1 5.312 169 162 152
31.4 33.1 5.312 167 160 150
31.3 33.1 5.312 164 157 147
31.2 33.1 5.312 159 155 144
31.1 33.1 5.286 159 155 144
31 33.1 5.286 160 156 145
30.9 33.1 5.244 147 143 132
30.8 33.1 5.244 151 149 137
30.7 33.1 5.214 145 143 131
30.6 33.1 5.214 133 131 119
30.5 33.1 5.214 127 125 113
30.4 33.1 5.214 121 119 107
30.3 33.1 5.143 126 126 116
30.2 33.1 5.143 148 148 140
30.1 33.1 5.099 163 164 156
30 33.1 5.079 164 165 157
29.9 33.1 5.079 154 155 147
29.8 33.1 5.079 149 150 142
29.7 33.1 5.048 146 147 139
29.6 33.1 5.048 143 143 135
29.5 33.1 5.028 145 145 137
29.4 33.1 5.028 145 145 135
29.3 33.1 4.996 143 143 133
29.2 33.1 4.996 147 144 135
29.1 33.1 4.957 152 149 140
29 33.1 4.957 151 148 139
28.9 33.1 4.957 142 139 130
28.8 33.1 4.957 138 136 124
28.7 33.1 4.909 140 136 125
28.6 33.1 4.909 140 133 123
28.5 33.1 4.876 140 132 121
28.4 33.1 4.876 139 131 120
28.3 33.1 4.876 138 130 119
28.2 33.1 4.876 138 130 119
28.1 33.1 4.857 138 130 119
28 33.1 4.857 138 130 119
27.9 33.1 4.824 138 130 119
27.8 33.1 4.824 139 131 120
27.7 33.1 4.786 139 131 120
27.6 33.1 4.786 139 131 120
27.5 33.1 4.752 139 131 120
27.4 33.1 4.752 139 131 120
27.3 33.1 4.752 138 130 119
27.2 33.1 4.752 138 130 119
27.1 33.1 4.682 138 130 119
27 33.1 4.682 140 130 118
26.9 33.1 4.682 138 128 116
26.8 33.1 4.682 136 126 114
26.7 33.1 4.672 136 126 114
26.6 33.1 4.672 137 129 116
26.5 33.1 4.672 139 131 118
26.4 33.1 4.672 139 133 121
26.3 33.1 4.661 139 133 121
26.2 33.1 4.643 139 135 123
26.1 33.1 4.643 139 135 123
26 33.1 4.643 143 139 128
25.9 33.1 4.643 147 145 133
25.8 33.1 4.643 144 142 130
25.7 33.1 4.632 132 130 118
51.2 33 6 118 116 104
51.1 33 12.682 239 194 39
51 33 12.635 159 136 60
50.9 33 12.682 142 129 94
50.8 33 12.635 154 143 113
50.7 33 12.593 135 124 102
50.6 33 12.545 97 88 73
50.5 33 12.522 114 107 97
50.4 33 12.472 139 135 126
50.3 33 12.405 121 118 109
50.2 33 12.332 70 68 56
50.1 33 12.236 83 81 66
50 33 12.142 68 65 48
49.9 33 12.118 78 73 54
49.8 33 12.071 115 108 90
49.7 33 12 121 112 95
49.6 33 11.929 144 132 118
49.5 33 11.812 135 123 109
49.4 33 11.787 131 119 103
49.3 33 11.787 144 132 116
49.2 33 11.764 166 154 138
49.1 33 11.671 155 143 127
49 33 11.646 146 134 118
48.9 33 11.529 130 118 102
48.8 33 11.457 147 138 121
48.7 33 11.341 143 134 117
48.6 33 11.315 123 114 97
48.5 33 11.241 95 86 69
48.4 33 11.197 102 95 77
48.3 33 11.146 116 109 91
48.2 33 11.119 129 122 104
48.1 33 11.051 94 87 69
48 33 10.941 104 97 79
47.9 33 10.748 140 133 115
47.8 33 10.654 138 133 114
47.7 33 10.606 148 143 124
47.6 33 10.583 134 131 112
47.5 33 10.512 101 98 79
47.4 33 10.482 60 59 39
47.3 33 10.37 71 70 50
47.2 33 10.346 87 86 66
47.1 33 10.235 81 80 60
47 33 10.15 106 105 85
46.9 33 10.071 102 101 81
46.8 33 10.04 109 106 87
46.7 33 9.96 123 118 99
46.6 33 9.929 127 120 102
46.5 33 9.896 120 113 95
46.4 33 9.833 121 112 95
46.3 33 9.723 127 118 101
46.2 33 9.661 120 113 95
46.1 33 9.638 129 122 104
46 33 9.581 139 132 114
45.9 33 9.529 141 134 116
45.8 33 9.472 136 129 111
45.7 33 9.402 134 127 109
45.6 33 9.344 139 132 114
45.5 33 9.236 144 137 119
45.4 33 9.202 146 139 121
45.3 33 9.154 146 139 121
45.2 33 9.119 146 139 121
45.1 33 9.071 147 140 122
45 33 9.012 146 139 121
44.9 33 8.976 146 139 121
44.8 33 8.906 146 139 121
44.7 33 8.87 146 139 121
44.6 33 8.87 146 139 121
44.5 33 8.833 145 138 119
44.4 33 8.786 143 136 118
44.3 33 8.727 141 134 116
44.2 33 8.727 140 133 115
44.1 33 8.68 139 132 114
44 33 8.643 139 132 114
43.9 33 8.595 139 132 114
43.8 33 8.548 136 129 111
43.7 33 8.51 136 129 111
43.6 33 8.496 135 128 110
43.5 33 8.448 131 124 108
43.4 33 8.448 129 122 106
43.3 33 8.405 131 124 108
43.2 33 8.367 137 130 114
43.1 33 8.319 142 135 119
43 33 8.319 139 132 116
42.9 33 8.262 143 136 120
42.8 33 8.262 144 137 121
42.7 33 8.199 141 134 118
42.6 33 8.158 143 137 123
42.5 33 8.119 146 140 126
42.4 33 8.063 135 132 117
42.3 33 8.024 122 119 104
42.2 33 7.961 111 107 95
42.1 33 7.921 115 113 100
42 33 7.921 118 116 103
41.9 33 7.882 120 121 107
41.8 33 7.882 128 129 115
41.7 33 7.819 138 139 125
41.6 33 7.819 141 143 130
41.5 33 7.793 138 140 127
41.4 33 7.793 141 141 131
41.3 33 7.731 148 148 138
41.2 33 7.731 140 137 128
41.1 33 7.69 128 125 116
41 33 7.69 134 131 122
40.9 33 7.649 142 139 130
40.8 33 7.649 143 141 129
40.7 33 7.571 144 142 130
40.6 33 7.548 136 132 121
40.5 33 7.482 135 131 120
40.4 33 7.482 135 131 119
40.3 33 7.447 136 132 120
40.2 33 7.447 141 135 123
40.1 33 7.447 143 137 125
40 33 7.417 143 137 125
39.9 33 7.31 142 136 124
39.8 33 7.252 146 140 128
39.7 33 7.233 157 151 139
39.6 33 7.214 157 151 139
39.5 33 7.209 147 141 129
39.4 33 7.209 145 139 127
39.3 33 7.176 148 142 130
39.2 33 7.11 150 144 130
39.1 33 7.067 153 147 133
39 33 7.067 147 141 127
38.9 33 7.016 153 147 133
38.8 33 7.016 155 149 133
38.7 33 6.972 153 147 131
38.6 33 6.969 153 147 131
38.5 33 6.945 154 148 132
38.4 33 6.877 150 143 127
38.3 33 6.83 143 136 120
38.2 33 6.83 168 161 143
38.1 33 6.783 161 154 136
38 33 6.762 155 148 130
37.9 33 6.732 151 144 126
37.8 33 6.732 150 141 124
37.7 33 6.709 151 142 125
37.6 33 6.709 152 143 128
37.5 33 6.612 150 141 126
37.4 33 6.591 157 145 131
37.3 33 6.522 156 144 130
37.2 33 6.522 154 142 130
37.1 33 6.518 132 120 108
37 33 6.518 113 101 89
36.9 33 6.494 89 77 65
36.8 33 6.449 68 54 43
36.7 33 6.402 63 50 41
36.6 33 6.356 155 145 136
36.5 33 6.356 177 168 159
36.4 33 6.356 192 183 174
36.3 33 6.286 186 177 168
36.2 33 6.262 177 168 159
36.1 33 6.213 176 167 158
36 33 6.213 174 165 156
35.9 33 6.166 169 160 151
35.8 33 6.119 170 161 152
35.7 33 6.071 176 167 158
35.6 33 6.071 179 170 161
35.5 33 6.024 175 166 157
35.4 33 6.024 171 162 153
35.3 33 6.024 170 161 152
35.2 33 6.024 169 160 151
35.1 33 5.929 167 160 152
35 33 5.929 158 153 147
34.9 33 5.905 158 155 148
34.8 33 5.905 149 146 139
34.7 33 5.882 150 147 140
34.6 33 5.881 161 158 151
34.5 33 5.857 150 147 140
34.4 33 5.857 132 129 122
34.3 33 5.81 133 130 123
34.2 33 5.81 124 121 114
34.1 33 5.81 112 109 102
34 33 5.81 120 117 110
33.9 33 5.739 151 148 141
33.8 33 5.739 173 170 163
33.7 33 5.739 172 169 162
33.6 33 5.737 166 163 156
33.5 33 5.688 166 163 156
33.4 33 5.687 167 164 155
33.3 33 5.687 164 161 152
33.2 33 5.687 161 158 149
33.1 33 5.618 162 159 150
33 33 5.618 166 163 154
32.9 33 5.568 168 165 156
32.8 33 5.568 168 164 153
32.7 33 5.568 166 162 151
32.6 33 5.568 165 161 150
32.5 33 5.496 169 165 154
32.4 33 5.496 171 165 153
32.3 33 5.45 170 164 152
32.2 33 5.45 174 168 156
32.1 33 5.45 186 180 168
32 33 5.45 197 191 179
31.9 33 5.362 203 197 185
31.8 33 5.362 188 181 171
31.7 33 5.333 176 169 159
31.6 33 5.333 168 161 151
31.5 33 5.312 169 162 152
31.4 33 5.312 169 162 152
31.3 33 5.312 164 157 147
31.2 33 5.312 159 155 144
31.1 33 5.286 161 157 146
31 33 5.286 160 156 145
30.9 33 5.244 147 143 132
30.8 33 5.244 159 157 145
30.7 33 5.214 152 150 138
30.6 33 5.214 129 127 115
30.5 33 5.214 131 129 117
30.4 33 5.214 132 130 118
30.3 33 5.143 126 126 116
30.2 33 5.143 140 141 133
30.1 33 5.079 158 159 153
30 33 5.079 162 163 155
29.9 33 5.079 151 152 144
29.8 33 5.079 145 146 138
29.7 33 5.048 142 143 135
29.6 33 5.048 142 142 134
29.5 33 5.024 148 148 140
29.4 33 5.028 146 146 136
29.3 33 4.996 145 145 135
29.2 33 4.996 149 146 137
29.1 33 4.957 152 149 140
29 33 4.957 149 146 137
28.9 33 4.957 141 138 129
28.8 33 4.957 137 135 123
28.7 33 4.909 139 135 124
28.6 33 4.909 139 133 121
28.5 33 4.876 139 131 120
28.4 33 4.876 138 130 119
28.3 33 4.876 137 129 118
28.2 33 4.876 137 129 118
28.1 33 4.857 137 129 118
28 33 4.857 137 129 118
27.9 33 4.824 138 130 119
27.8 33 4.824 137 129 118
27.7 33 4.786 137 129 118
27.6 33 4.786 136 128 117
27.5 33 4.752 136 128 117
27.4 33 4.752 136 128 117
27.3 33 4.752 136 128 117
27.2 33 4.752 137 129 118
27.1 33 4.682 137 129 118
27 33 4.682 138 128 116
26.9 33 4.682 137 127 115
26.8 33 4.682 136 126 114
26.7 33 4.672 136 126 114
26.6 33 4.672 138 130 119
26.5 33 4.672 139 131 120
26.4 33 4.672 139 133 121
26.3 33 4.661 139 133 121
26.2 33 4.643 137 133 121
26.1 33 4.643 136 132 121
26 33 4.643 139 137 125
25.9 33 4.643 142 140 128
25.8 33 4.643 133 131 119
25.7 33 4.632 115 115 103
51.2 32.9 6 107 107 97
51.1 32.9 12.803 239 194 39
51 32.9 12.78 162 139 61
50.9 32.9 12.732 149 136 101
50.8 32.9 12.685 142 131 101
50.7 32.9 12.548 128 117 95
50.6 32.9 12.522 130 121 106
50.5 32.9 12.425 141 134 124
50.4 32.9 12.353 113 109 100
50.3 32.9 12.285 63 60 51
50.2 32.9 12.236 57 55 43
50.1 32.9 12.142 100 98 83
50 32.9 12.118 78 75 58
49.9 32.9 12.118 98 93 74
49.8 32.9 12.118 136 129 111
49.7 32.9 12.095 150 141 124
49.6 32.9 12 142 130 116
49.5 32.9 11.835 135 121 108
49.4 32.9 11.764 130 117 101
49.3 32.9 11.764 150 137 120
49.2 32.9 11.715 154 141 124
49.1 32.9 11.598 136 123 106
49 32.9 11.573 149 138 120
48.9 32.9 11.457 160 149 131
48.8 32.9 11.431 162 151 133
48.7 32.9 11.315 108 97 79
48.6 32.9 11.291 107 99 80
48.5 32.9 11.197 104 96 77
48.4 32.9 11.146 137 130 112
48.3 32.9 11.075 139 132 114
48.2 32.9 11.004 107 100 82
48.1 32.9 11.004 77 70 52
48 32.9 10.89 119 112 94
47.9 32.9 10.719 149 142 124
47.8 32.9 10.625 170 165 146
47.7 32.9 10.583 157 154 135
47.6 32.9 10.583 117 114 95
47.5 32.9 10.488 62 59 40
47.4 32.9 10.435 62 61 41
47.3 32.9 10.346 79 78 58
47.2 32.9 10.292 97 96 76
47.1 32.9 10.181 111 110 90
47 32.9 10.15 135 134 114
46.9 32.9 10.039 123 122 102
46.8 32.9 10.008 118 115 96
46.7 32.9 9.929 125 120 101
46.6 32.9 9.896 128 121 103
46.5 32.9 9.881 124 115 98
46.4 32.9 9.801 124 112 96
46.3 32.9 9.69 125 116 99
46.2 32.9 9.638 118 111 93
46.1 32.9 9.581 128 121 103
46 32.9 9.581 139 132 114
45.9 32.9 9.529 142 135 117
45.8 32.9 9.472 138 131 113
45.7 32.9 9.402 137 130 112
45.6 32.9 9.331 142 135 117
45.5 32.9 9.236 148 141 123
45.4 32.9 9.202 147 140 122
45.3 32.9 9.094 147 140 122
45.2 32.9 9.071 147 140 122
45.1 32.9 9.012 147 140 122
45 32.9 8.976 146 139 121
44.9 32.9 8.953 147 140 122
44.8 32.9 8.906 147 140 122
44.7 32.9 8.87 147 140 122
44.6 32.9 8.824 145 138 119
44.5 32.9 8.764 145 139 117
44.4 32.9 8.764 144 137 118
44.3 32.9 8.727 142 135 116
44.2 32.9 8.68 142 135 116
44.1 32.9 8.632 141 134 115
44 32.9 8.632 141 134 116
43.9 32.9 8.595 140 133 115
43.8 32.9 8.548 136 129 113
43.7 32.9 8.51 137 130 114
43.6 32.9 8.448 136 129 113
43.5 32.9 8.405 133 125 112
43.4 32.9 8.405 130 122 109
43.3 32.9 8.367 131 123 110
43.2 32.9 8.367 136 128 115
43.1 32.9 8.3 140 132 119
43 32.9 8.262 143 136 120
42.9 32.9 8.262 146 139 123
42.8 32.9 8.262 145 138 122
42.7 32.9 8.197 142 135 119
42.6 32.9 8.158 143 137 123
42.5 32.9 8.119 146 140 126
42.4 32.9 8.048 141 135 121
42.3 32.9 8.024 130 127 112
42.2 32.9 7.961 120 117 102
42.1 32.9 7.921 118 116 101
42 32.9 7.906 118 116 101
41.9 32.9 7.866 121 119 104
41.8 32.9 7.819 127 128 114
41.7 32.9 7.812 135 136 122
41.6 32.9 7.819 137 139 125
41.5 32.9 7.793 134 136 123
41.4 32.9 7.793 140 140 130
41.3 32.9 7.731 151 151 141
41.2 32.9 7.731 141 138 129
41.1 32.9 7.69 122 119 110
41 32.9 7.69 130 127 118
40.9 32.9 7.649 147 144 135
40.8 32.9 7.649 146 144 132
40.7 32.9 7.571 137 135 123
40.6 32.9 7.548 130 126 115
40.5 32.9 7.482 132 128 117
40.4 32.9 7.482 136 132 120
40.3 32.9 7.447 139 135 123
40.2 32.9 7.447 142 136 124
40.1 32.9 7.405 142 136 124
40 32.9 7.352 144 138 126
39.9 32.9 7.31 145 139 127
39.8 32.9 7.252 145 137 126
39.7 32.9 7.233 150 142 131
39.6 32.9 7.214 134 126 115
39.5 32.9 7.209 116 108 97
39.4 32.9 7.209 117 109 98
39.3 32.9 7.176 119 111 100
39.2 32.9 7.11 116 110 96
39.1 32.9 7.067 120 114 100
39 32.9 7.067 126 120 106
38.9 32.9 7.016 138 132 118
38.8 32.9 6.972 149 143 127
38.7 32.9 6.949 149 143 127
38.6 32.9 6.945 146 140 124
38.5 32.9 6.945 149 143 127
38.4 32.9 6.877 161 155 139
38.3 32.9 6.83 171 165 149
38.2 32.9 6.783 158 151 133
38.1 32.9 6.783 157 150 132
38 32.9 6.762 156 149 131
37.9 32.9 6.711 164 157 139
37.8 32.9 6.711 175 168 150
37.7 32.9 6.688 175 168 150
37.6 32.9 6.709 167 158 143
37.5 32.9 6.612 159 150 135
37.4 32.9 6.591 156 146 134
37.3 32.9 6.522 162 152 140
37.2 32.9 6.522 162 150 138
37.1 32.9 6.518 138 126 114
37 32.9 6.518 127 114 105
36.9 32.9 6.471 118 105 96
36.8 32.9 6.449 79 66 57
36.7 32.9 6.402 67 54 45
36.6 32.9 6.356 146 136 127
36.5 32.9 6.308 169 160 151
36.4 32.9 6.308 189 180 171
36.3 32.9 6.262 188 179 170
36.2 32.9 6.239 180 171 162
36.1 32.9 6.213 176 167 158
36 32.9 6.19 172 163 154
35.9 32.9 6.166 166 157 148
35.8 32.9 6.119 173 164 155
35.7 32.9 6.071 177 168 159
35.6 32.9 6.071 177 168 159
35.5 32.9 6.024 172 163 154
35.4 32.9 6.024 170 160 151
35.3 32.9 6.024 170 160 151
35.2 32.9 6.024 170 160 151
35.1 32.9 5.929 166 157 150
35 32.9 5.929 158 153 147
34.9 32.9 5.905 160 157 152
34.8 32.9 5.905 156 153 148
34.7 32.9 5.882 163 160 155
34.6 32.9 5.881 177 174 169
34.5 32.9 5.857 164 161 156
34.4 32.9 5.857 139 136 131
34.3 32.9 5.81 133 130 125
34.2 32.9 5.81 122 119 114
34.1 32.9 5.81 110 107 102
34 32.9 5.81 109 106 101
33.9 32.9 5.739 127 124 119
33.8 32.9 5.738 150 147 142
33.7 32.9 5.738 164 161 156
33.6 32.9 5.737 168 165 160
33.5 32.9 5.688 169 166 159
33.4 32.9 5.687 168 168 158
33.3 32.9 5.687 164 164 154
33.2 32.9 5.687 161 161 151
33.1 32.9 5.618 160 160 150
33 32.9 5.618 165 162 153
32.9 32.9 5.568 167 164 155
32.8 32.9 5.568 168 166 154
32.7 32.9 5.568 168 166 154
32.6 32.9 5.568 171 167 156
32.5 32.9 5.496 171 167 156
32.4 32.9 5.496 169 165 153
32.3 32.9 5.45 171 167 155
32.2 32.9 5.45 180 176 164
32.1 32.9 5.45 194 190 178
32 32.9 5.45 204 198 186
31.9 32.9 5.362 206 200 188
31.8 32.9 5.362 185 178 168
31.7 32.9 5.333 174 167 157
31.6 32.9 5.333 164 160 149
31.5 32.9 5.312 167 163 152
31.4 32.9 5.312 168 164 153
31.3 32.9 5.312 163 159 148
31.2 32.9 5.312 161 157 146
31.1 32.9 5.286 164 160 149
31 32.9 5.286 159 157 145
30.9 32.9 5.244 147 145 133
30.8 32.9 5.241 160 158 146
30.7 32.9 5.214 143 141 129
30.6 32.9 5.214 112 112 100
30.5 32.9 5.214 126 126 114
30.4 32.9 5.214 141 141 129
30.3 32.9 5.143 139 139 129
30.2 32.9 5.143 141 142 134
30.1 32.9 5.079 161 162 156
30 32.9 5.079 164 165 159
29.9 32.9 5.079 151 152 146
29.8 32.9 5.075 143 144 138
29.7 32.9 5.048 138 139 133
29.6 32.9 5.048 140 141 133
29.5 32.9 5.024 147 148 140
29.4 32.9 5.024 147 147 137
29.3 32.9 4.996 147 147 137
29.2 32.9 4.996 149 149 139
29.1 32.9 4.957 149 149 139
29 32.9 4.957 147 145 133
28.9 32.9 4.957 141 139 127
28.8 32.9 4.957 138 136 124
28.7 32.9 4.909 139 135 124
28.6 32.9 4.909 138 132 120
28.5 32.9 4.876 138 130 119
28.4 32.9 4.876 138 130 119
28.3 32.9 4.876 137 129 118
28.2 32.9 4.876 137 129 118
28.1 32.9 4.857 137 129 118
28 32.9 4.857 137 129 118
27.9 32.9 4.824 138 130 119
27.8 32.9 4.824 134 126 115
27.7 32.9 4.786 134 126 115
27.6 32.9 4.786 134 126 115
27.5 32.9 4.752 133 125 114
27.4 32.9 4.752 134 126 115
27.3 32.9 4.752 135 127 116
27.2 32.9 4.752 136 128 117
27.1 32.9 4.682 136 128 117
27 32.9 4.682 136 126 116
26.9 32.9 4.682 135 125 115
26.8 32.9 4.682 135 125 115
26.7 32.9 4.672 136 126 116
26.6 32.9 4.672 138 129 120
26.5 32.9 4.672 140 131 122
26.4 32.9 4.672 139 132 122
26.3 32.9 4.661 139 132 122
26.2 32.9 4.643 137 133 122
26.1 32.9 4.643 136 132 123
26 32.9 4.643 136 133 124
25.9 32.9 4.643 132 129 120
25.8 32.9 4.643 115 115 105
25.7 32.9 4.632 100 100 90
51.2 32.8 7.091 99 99 91
51.1 32.8 12.901 240 194 39
51 32.8 12.85 160 134 57
50.9 32.8 12.783 150 136 99
50.8 32.8 12.688 122 108 79
50.7 32.8 12.548 147 136 114
50.6 32.8 12.474 165 156 141
50.5 32.8 12.353 129 122 112
50.4 32.8 12.236 93 89 80
50.3 32.8 12.189 44 41 32
50.2 32.8 12.142 56 54 42
50.1 32.8 12.118 105 103 88
50 32.8 12.094 82 79 62
49.9 32.8 12.094 107 102 83
49.8 32.8 12.142 135 128 110
49.7 32.8 12.119 143 134 117
49.6 32.8 12.048 133 119 106
49.5 32.8 11.81 139 126 110
49.4 32.8 11.715 145 132 115
49.3 32.8 11.715 141 128 111
49.2 32.8 11.69 142 129 112
49.1 32.8 11.571 147 134 117
49 32.8 11.546 154 143 125
48.9 32.8 11.431 146 135 117
48.8 32.8 11.383 135 124 106
48.7 32.8 11.291 101 90 72
48.6 32.8 11.241 130 122 103
48.5 32.8 11.146 141 133 114
48.4 32.8 11.119 145 138 120
48.3 32.8 11.004 114 107 89
48.2 32.8 10.976 76 69 51
48.1 32.8 10.976 85 78 60
48 32.8 10.862 140 133 115
47.9 32.8 10.672 149 144 125
47.8 32.8 10.606 186 181 162
47.7 32.8 10.583 147 144 125
47.6 32.8 10.53 100 97 78
47.5 32.8 10.482 65 62 43
47.4 32.8 10.405 92 91 71
47.3 32.8 10.34 96 95 75
47.2 32.8 10.262 85 84 64
47.1 32.8 10.15 98 97 77
47 32.8 10.126 133 132 112
46.9 32.8 10.008 141 140 120
46.8 32.8 9.96 142 137 118
46.7 32.8 9.929 127 122 103
46.6 32.8 9.896 123 114 97
46.5 32.8 9.833 127 118 101
46.4 32.8 9.771 128 116 100
46.3 32.8 9.69 118 109 92
46.2 32.8 9.638 118 109 92
46.1 32.8 9.581 126 119 101
46 32.8 9.548 138 131 113
45.9 32.8 9.472 143 136 118
45.8 32.8 9.439 142 135 117
45.7 32.8 9.331 142 135 117
45.6 32.8 9.296 147 140 122
45.5 32.8 9.202 152 145 127
45.4 32.8 9.154 147 140 122
45.3 32.8 9.094 147 140 122
45.2 32.8 9.012 147 140 122
45.1 32.8 8.976 147 140 122
45 32.8 8.976 147 140 122
44.9 32.8 8.906 147 140 122
44.8 32.8 8.87 147 140 122
44.7 32.8 8.824 147 140 121
44.6 32.8 8.824 145 139 117
44.5 32.8 8.764 144 138 116
44.4 32.8 8.727 144 138 116
44.3 32.8 8.68 143 137 115
44.2 32.8 8.68 142 135 116
44.1 32.8 8.632 140 133 114
44 32.8 8.595 140 133 115
43.9 32.8 8.548 139 132 114
43.8 32.8 8.51 137 130 114
43.7 32.8 8.448 137 130 114
43.6 32.8 8.448 137 129 116
43.5 32.8 8.405 135 127 114
43.4 32.8 8.405 134 126 115
43.3 32.8 8.367 133 125 114
43.2 32.8 8.319 134 126 115
43.1 32.8 8.262 135 127 116
43 32.8 8.262 144 136 123
42.9 32.8 8.262 147 140 124
42.8 32.8 8.199 146 139 123
42.7 32.8 8.158 143 136 120
42.6 32.8 8.158 142 136 122
42.5 32.8 8.063 144 138 124
42.4 32.8 8.048 142 136 122
42.3 32.8 7.961 137 131 117
42.2 32.8 7.961 125 122 107
42.1 32.8 7.929 123 120 105
42 32.8 7.882 120 118 103
41.9 32.8 7.819 124 122 107
41.8 32.8 7.819 128 129 115
41.7 32.8 7.812 134 135 121
41.6 32.8 7.812 133 135 121
41.5 32.8 7.793 131 133 119
41.4 32.8 7.793 140 140 128
41.3 32.8 7.731 148 148 138
41.2 32.8 7.731 136 133 124
41.1 32.8 7.69 119 116 107
41 32.8 7.69 131 128 119
40.9 32.8 7.649 149 146 137
40.8 32.8 7.649 145 143 131
40.7 32.8 7.548 132 130 118
40.6 32.8 7.548 129 125 114
40.5 32.8 7.482 134 130 119
40.4 32.8 7.482 140 136 124
40.3 32.8 7.447 142 138 126
40.2 32.8 7.447 142 136 124
40.1 32.8 7.405 142 136 124
40 32.8 7.352 144 138 126
39.9 32.8 7.31 146 140 128
39.8 32.8 7.252 144 136 125
39.7 32.8 7.233 147 139 128
39.6 32.8 7.214 124 116 105
39.5 32.8 7.209 103 95 84
39.4 32.8 7.167 106 98 87
39.3 32.8 7.11 102 94 83
39.2 32.8 7.11 90 84 70
39.1 32.8 7.067 91 85 71
39 32.8 7.067 87 81 67
38.9 32.8 6.972 78 72 58
38.8 32.8 6.972 76 70 54
38.7 32.8 6.949 89 83 67
38.6 32.8 6.945 108 102 86
38.5 32.8 6.945 120 114 98
38.4 32.8 6.877 129 123 107
38.3 32.8 6.83 135 129 113
38.2 32.8 6.783 154 147 129
38.1 32.8 6.783 162 155 137
38 32.8 6.762 162 155 137
37.9 32.8 6.711 162 155 137
37.8 32.8 6.711 166 159 141
37.7 32.8 6.688 161 154 136
37.6 32.8 6.64 156 147 132
37.5 32.8 6.612 160 151 136
37.4 32.8 6.591 165 155 143
37.3 32.8 6.522 160 150 138
37.2 32.8 6.522 159 147 135
37.1 32.8 6.518 152 140 128
37 32.8 6.518 150 137 128
36.9 32.8 6.471 138 125 116
36.8 32.8 6.449 85 72 63
36.7 32.8 6.356 83 73 63
36.6 32.8 6.356 152 142 133
36.5 32.8 6.308 160 151 142
36.4 32.8 6.286 169 160 151
36.3 32.8 6.262 175 166 157
36.2 32.8 6.239 180 171 162
36.1 32.8 6.19 181 172 163
36 32.8 6.19 176 167 158
35.9 32.8 6.119 169 160 151
35.8 32.8 6.119 169 160 151
35.7 32.8 6.071 172 163 154
35.6 32.8 6.048 172 163 154
35.5 32.8 6.024 169 160 151
35.4 32.8 6.024 169 159 150
35.3 32.8 6.024 171 161 152
35.2 32.8 5.976 170 160 151
35.1 32.8 5.929 166 157 150
35 32.8 5.929 159 154 148
34.9 32.8 5.905 162 159 154
34.8 32.8 5.905 166 163 158
34.7 32.8 5.882 176 173 168
34.6 32.8 5.881 186 183 178
34.5 32.8 5.857 176 173 168
34.4 32.8 5.857 149 146 141
34.3 32.8 5.81 132 129 124
34.2 32.8 5.81 110 107 102
34.1 32.8 5.81 111 108 103
34 32.8 5.81 111 108 103
33.9 32.8 5.738 114 111 106
33.8 32.8 5.738 124 121 116
33.7 32.8 5.738 140 137 132
33.6 32.8 5.737 159 156 151
33.5 32.8 5.688 172 169 162
33.4 32.8 5.687 169 169 161
33.3 32.8 5.687 168 168 158
33.2 32.8 5.687 166 166 156
33.1 32.8 5.618 165 165 155
33 32.8 5.618 166 163 154
32.9 32.8 5.568 166 163 154
32.8 32.8 5.568 167 165 153
32.7 32.8 5.568 168 166 154
32.6 32.8 5.568 169 165 154
32.5 32.8 5.496 169 165 154
32.4 32.8 5.496 169 165 153
32.3 32.8 5.45 171 167 155
32.2 32.8 5.45 179 175 163
32.1 32.8 5.45 185 181 169
32 32.8 5.45 185 179 167
31.9 32.8 5.362 179 173 161
31.8 32.8 5.362 177 170 160
31.7 32.8 5.333 171 164 154
31.6 32.8 5.333 165 161 150
31.5 32.8 5.312 166 162 151
31.4 32.8 5.312 166 162 151
31.3 32.8 5.312 165 161 150
31.2 32.8 5.312 163 159 148
31.1 32.8 5.286 164 160 149
31 32.8 5.286 160 158 146
30.9 32.8 5.244 148 146 134
30.8 32.8 5.241 150 148 136
30.7 32.8 5.214 119 117 105
30.6 32.8 5.214 90 90 78
30.5 32.8 5.214 118 118 106
30.4 32.8 5.211 148 148 136
30.3 32.8 5.143 154 154 144
30.2 32.8 5.143 156 157 149
30.1 32.8 5.079 170 171 165
30 32.8 5.079 168 169 163
29.9 32.8 5.075 153 154 148
29.8 32.8 5.075 145 146 140
29.7 32.8 5.048 141 142 136
29.6 32.8 5.048 140 141 133
29.5 32.8 5.024 144 145 137
29.4 32.8 5.024 146 146 136
29.3 32.8 4.996 148 148 138
29.2 32.8 4.996 150 150 140
29.1 32.8 4.957 149 149 139
29 32.8 4.957 146 144 132
28.9 32.8 4.957 140 138 126
28.8 32.8 4.952 138 136 124
28.7 32.8 4.905 139 135 124
28.6 32.8 4.905 137 131 119
28.5 32.8 4.876 138 130 119
28.4 32.8 4.876 138 130 119
28.3 32.8 4.876 137 129 118
28.2 32.8 4.876 137 129 118
28.1 32.8 4.857 138 130 119
28 32.8 4.857 138 130 119
27.9 32.8 4.824 138 130 119
27.8 32.8 4.824 135 127 116
27.7 32.8 4.786 134 126 115
27.6 32.8 4.786 133 125 114
27.5 32.8 4.752 132 124 113
27.4 32.8 4.752 132 124 113
27.3 32.8 4.752 133 125 114
27.2 32.8 4.752 134 126 115
27.1 32.8 4.682 135 127 116
27 32.8 4.682 134 124 114
26.9 32.8 4.682 134 124 114
26.8 32.8 4.682 134 124 115
26.7 32.8 4.672 136 126 117
26.6 32.8 4.672 138 129 120
26.5 32.8 4.672 140 131 122
26.4 32.8 4.672 139 132 122
26.3 32.8 4.661 139 132 122
26.2 32.8 4.643 140 136 127
26.1 32.8 4.643 137 133 124
26 32.8 4.643 130 127 118
25.9 32.8 4.643 118 115 106
25.8 32.8 4.643 100 100 92
25.7 32.8 4.632 91 91 83
51.2 32.7 6.75 93 94 86
51.1 32.7 12.972 240 194 39
51 32.7 12.949 161 136 56
50.9 32.7 12.854 143 129 92
50.8 32.7 12.738 145 131 102
50.7 32.7 12.55 176 166 141
50.6 32.7 12.427 165 156 141
50.5 32.7 12.306 106 99 89
50.4 32.7 12.188 77 73 64
50.3 32.7 12.118 70 67 58
50.2 32.7 12.071 87 87 75
50.1 32.7 12.047 99 97 84
50 32.7 12.094 86 83 66
49.9 32.7 12.119 121 116 97
49.8 32.7 12.189 147 140 121
49.7 32.7 12.214 139 131 112
49.6 32.7 12.048 145 132 116
49.5 32.7 11.832 148 135 119
49.4 32.7 11.69 153 140 123
49.3 32.7 11.647 140 127 108
49.2 32.7 11.597 146 133 116
49.1 32.7 11.57 154 141 124
49 32.7 11.546 124 111 94
48.9 32.7 11.431 103 90 73
48.8 32.7 11.357 109 98 80
48.7 32.7 11.241 139 128 110
48.6 32.7 11.214 159 151 132
48.5 32.7 11.119 167 159 140
48.4 32.7 11.092 118 111 93
48.3 32.7 11.004 85 78 60
48.2 32.7 10.976 81 74 56
48.1 32.7 10.929 110 103 85
48 32.7 10.838 141 134 116
47.9 32.7 10.672 145 140 121
47.8 32.7 10.583 162 157 138
47.7 32.7 10.512 107 104 85
47.6 32.7 10.512 80 77 58
47.5 32.7 10.476 95 92 73
47.4 32.7 10.398 103 102 82
47.3 32.7 10.292 95 94 74
47.2 32.7 10.262 58 60 39
47.1 32.7 10.15 71 73 52
47 32.7 10.126 130 129 109
46.9 32.7 10.008 141 140 120
46.8 32.7 9.96 144 139 120
46.7 32.7 9.913 128 123 104
46.6 32.7 9.881 121 112 95
46.5 32.7 9.833 126 117 100
46.4 32.7 9.723 128 116 100
46.3 32.7 9.657 120 111 94
46.2 32.7 9.581 126 117 100
46.1 32.7 9.543 133 126 108
46 32.7 9.529 143 136 118
45.9 32.7 9.472 148 141 123
45.8 32.7 9.439 149 142 124
45.7 32.7 9.331 148 141 123
45.6 32.7 9.296 150 143 125
45.5 32.7 9.202 152 145 127
45.4 32.7 9.154 149 142 124
45.3 32.7 9.094 149 142 124
45.2 32.7 9.012 149 142 124
45.1 32.7 8.953 149 142 124
45 32.7 8.906 149 142 124
44.9 32.7 8.87 148 141 123
44.8 32.7 8.87 148 141 123
44.7 32.7 8.824 147 140 121
44.6 32.7 8.764 145 139 115
44.5 32.7 8.727 144 138 114
44.4 32.7 8.727 143 137 113
44.3 32.7 8.68 142 136 112
44.2 32.7 8.667 139 133 111
44.1 32.7 8.632 137 130 111
44 32.7 8.595 135 128 110
43.9 32.7 8.548 134 127 109
43.8 32.7 8.51 138 131 115
43.7 32.7 8.429 138 131 115
43.6 32.7 8.405 138 130 117
43.5 32.7 8.367 138 130 119
43.4 32.7 8.367 138 129 120
43.3 32.7 8.319 136 127 118
43.2 32.7 8.319 133 124 115
43.1 32.7 8.262 130 121 112
43 32.7 8.262 143 135 122
42.9 32.7 8.199 145 138 122
42.8 32.7 8.199 145 138 122
42.7 32.7 8.158 143 136 120
42.6 32.7 8.158 143 136 120
42.5 32.7 8.048 144 137 121
42.4 32.7 8.048 143 137 123
42.3 32.7 7.961 141 135 121
42.2 32.7 7.961 129 126 111
42.1 32.7 7.906 128 125 110
42 32.7 7.866 129 127 112
41.9 32.7 7.819 133 131 116
41.8 32.7 7.819 137 138 122
41.7 32.7 7.788 138 139 123
41.6 32.7 7.788 136 139 122
41.5 32.7 7.728 133 135 121
41.4 32.7 7.728 143 143 131
41.3 32.7 7.731 139 139 129
41.2 32.7 7.731 126 123 114
41.1 32.7 7.69 122 119 110
41 32.7 7.69 138 135 126
40.9 32.7 7.649 146 143 134
40.8 32.7 7.649 138 136 124
40.7 32.7 7.548 130 128 116
40.6 32.7 7.548 135 131 120
40.5 32.7 7.482 139 135 124
40.4 32.7 7.482 143 139 127
40.3 32.7 7.447 144 140 128
40.2 32.7 7.447 145 139 127
40.1 32.7 7.405 144 138 126
40 32.7 7.352 144 138 126
39.9 32.7 7.31 145 139 127
39.8 32.7 7.252 149 141 130
39.7 32.7 7.209 157 149 138
39.6 32.7 7.19 136 128 117
39.5 32.7 7.167 117 109 98
39.4 32.7 7.167 125 117 106
39.3 32.7 7.11 120 112 101
39.2 32.7 7.11 106 98 85
39.1 32.7 7.067 108 100 87
39 32.7 7.067 115 109 95
38.9 32.7 6.972 86 80 66
38.8 32.7 6.972 72 66 50
38.7 32.7 6.949 90 84 68
38.6 32.7 6.945 110 104 88
38.5 32.7 6.945 108 102 86
38.4 32.7 6.877 98 92 76
38.3 32.7 6.83 93 87 71
38.2 32.7 6.783 128 121 103
38.1 32.7 6.762 148 141 123
38 32.7 6.741 157 150 132
37.9 32.7 6.711 160 153 135
37.8 32.7 6.711 167 160 144
37.7 32.7 6.688 161 154 138
37.6 32.7 6.64 159 150 135
37.5 32.7 6.612 171 162 147
37.4 32.7 6.591 163 153 141
37.3 32.7 6.522 153 143 131
37.2 32.7 6.522 149 139 129
37.1 32.7 6.518 151 141 131
37 32.7 6.518 154 141 132
36.9 32.7 6.471 143 130 121
36.8 32.7 6.449 81 68 60
36.7 32.7 6.356 88 78 69
36.6 32.7 6.356 157 146 140
36.5 32.7 6.308 155 146 139
36.4 32.7 6.286 159 150 143
36.3 32.7 6.239 169 160 153
36.2 32.7 6.239 177 168 161
36.1 32.7 6.19 177 168 161
36 32.7 6.19 175 166 157
35.9 32.7 6.119 174 165 156
35.8 32.7 6.119 168 159 150
35.7 32.7 6.071 170 161 152
35.6 32.7 6.048 171 161 152
35.5 32.7 6.024 169 159 150
35.4 32.7 6.024 170 160 151
35.3 32.7 5.976 172 162 153
35.2 32.7 5.976 170 160 151
35.1 32.7 5.929 164 155 148
35 32.7 5.929 163 160 153
34.9 32.7 5.905 166 165 160
34.8 32.7 5.905 177 176 171
34.7 32.7 5.882 188 187 182
34.6 32.7 5.881 190 189 184
34.5 32.7 5.857 184 183 178
34.4 32.7 5.857 160 159 154
34.3 32.7 5.81 130 129 124
34.2 32.7 5.81 109 108 103
34.1 32.7 5.81 111 110 105
34 32.7 5.809 112 111 106
33.9 32.7 5.738 110 109 104
33.8 32.7 5.738 107 106 101
33.7 32.7 5.738 113 112 107
33.6 32.7 5.737 132 131 126
33.5 32.7 5.688 151 151 143
33.4 32.7 5.687 158 158 150
33.3 32.7 5.687 163 163 153
33.2 32.7 5.687 167 167 157
33.1 32.7 5.614 168 168 158
33 32.7 5.614 167 164 155
32.9 32.7 5.568 165 162 153
32.8 32.7 5.568 166 164 152
32.7 32.7 5.565 167 165 153
32.6 32.7 5.565 166 162 151
32.5 32.7 5.496 168 164 153
32.4 32.7 5.496 168 164 152
32.3 32.7 5.45 168 164 152
32.2 32.7 5.45 170 166 154
32.1 32.7 5.446 171 167 155
32 32.7 5.446 166 162 150
31.9 32.7 5.362 159 155 143
31.8 32.7 5.362 166 162 151
31.7 32.7 5.333 168 164 153
31.6 32.7 5.333 167 163 152
31.5 32.7 5.312 165 161 150
31.4 32.7 5.312 164 160 149
31.3 32.7 5.312 165 161 150
31.2 32.7 5.312 164 160 149
31.1 32.7 5.286 161 157 146
31 32.7 5.286 160 158 146
30.9 32.7 5.241 150 148 136
30.8 32.7 5.241 142 140 128
30.7 32.7 5.214 103 101 89
30.6 32.7 5.214 82 82 70
30.5 32.7 5.211 118 118 106
30.4 32.7 5.211 151 151 139
30.3 32.7 5.143 160 160 150
30.2 32.7 5.143 171 172 166
30.1 32.7 5.079 175 177 172
30 32.7 5.079 166 167 162
29.9 32.7 5.075 152 153 148
29.8 32.7 5.075 151 152 146
29.7 32.7 5.048 149 150 144
29.6 32.7 5.048 143 144 136
29.5 32.7 5.024 141 142 134
29.4 32.7 5.024 144 144 136
29.3 32.7 4.996 147 147 139
29.2 32.7 4.996 149 149 139
29.1 32.7 4.957 147 147 137
29 32.7 4.957 143 141 129
28.9 32.7 4.957 139 137 125
28.8 32.7 4.952 137 135 123
28.7 32.7 4.905 139 135 124
28.6 32.7 4.905 138 132 120
28.5 32.7 4.876 138 130 119
28.4 32.7 4.876 138 130 119
28.3 32.7 4.876 138 130 119
28.2 32.7 4.876 138 130 119
28.1 32.7 4.857 138 130 119
28 32.7 4.857 139 131 120
27.9 32.7 4.824 139 131 120
27.8 32.7 4.824 139 131 120
27.7 32.7 4.786 138 130 119
27.6 32.7 4.786 135 127 116
27.5 32.7 4.752 133 125 114
27.4 32.7 4.752 132 124 113
27.3 32.7 4.752 132 124 113
27.2 32.7 4.752 133 125 114
27.1 32.7 4.682 133 125 114
27 32.7 4.682 133 123 114
26.9 32.7 4.682 133 123 114
26.8 32.7 4.682 134 124 115
26.7 32.7 4.672 136 126 117
26.6 32.7 4.672 139 130 123
26.5 32.7 4.672 140 131 124
26.4 32.7 4.672 140 133 125
26.3 32.7 4.661 139 132 124
26.2 32.7 4.643 140 135 129
26.1 32.7 4.643 134 129 123
26 32.7 4.643 120 117 110
25.9 32.7 4.643 102 102 94
25.8 32.7 4.643 93 92 87
25.7 32.7 4.632 93 92 87
51.2 32.6 7 95 96 90
51.1 32.6 13.039 240 194 39
51 32.6 12.992 172 145 66
50.9 32.6 12.857 128 113 74
50.8 32.6 12.786 175 161 132
50.7 32.6 12.55 178 167 147
50.6 32.6 12.427 140 132 119
50.5 32.6 12.306 100 96 85
50.4 32.6 12.142 57 54 45
50.3 32.6 12.118 83 83 71
50.2 32.6 12.047 123 121 109
50.1 32.6 12.047 85 83 70
50 32.6 12.094 80 77 62
49.9 32.6 12.119 124 118 102
49.8 32.6 12.189 156 149 133
49.7 32.6 12.214 132 123 106
49.6 32.6 12.072 148 136 120
49.5 32.6 11.832 134 123 105
49.4 32.6 11.69 139 128 110
49.3 32.6 11.69 149 138 120
49.2 32.6 11.595 152 139 122
49.1 32.6 11.57 122 111 93
49 32.6 11.496 74 61 44
48.9 32.6 11.429 94 83 65
48.8 32.6 11.357 124 113 95
48.7 32.6 11.241 168 157 139
48.6 32.6 11.146 163 155 136
48.5 32.6 11.119 176 168 149
48.4 32.6 11.004 105 98 80
48.3 32.6 10.976 88 81 63
48.2 32.6 10.929 106 99 81
48.1 32.6 10.9 120 113 95
48 32.6 10.786 127 120 102
47.9 32.6 10.643 157 150 132
47.8 32.6 10.583 153 147 131
47.7 32.6 10.512 90 87 70
47.6 32.6 10.482 83 77 61
47.5 32.6 10.429 132 129 112
47.4 32.6 10.364 107 104 87
47.3 32.6 10.286 105 102 85
47.2 32.6 10.181 77 76 58
47.1 32.6 10.15 104 103 83
47 32.6 10.039 140 137 120
46.9 32.6 9.96 132 129 110
46.8 32.6 9.913 127 122 103
46.7 32.6 9.889 127 120 102
46.6 32.6 9.803 125 118 100
46.5 32.6 9.801 123 114 97
46.4 32.6 9.723 123 114 97
46.3 32.6 9.638 126 117 100
46.2 32.6 9.548 138 129 112
46.1 32.6 9.543 143 136 118
46 32.6 9.472 150 143 125
45.9 32.6 9.439 155 148 130
45.8 32.6 9.415 154 147 129
45.7 32.6 9.296 152 145 127
45.6 32.6 9.249 150 143 125
45.5 32.6 9.154 149 142 124
45.4 32.6 9.119 150 143 125
45.3 32.6 9.071 151 144 126
45.2 32.6 9.012 151 144 126
45.1 32.6 8.906 151 144 126
45 32.6 8.87 151 144 126
44.9 32.6 8.87 149 142 124
44.8 32.6 8.833 148 141 123
44.7 32.6 8.764 147 140 121
44.6 32.6 8.727 146 140 118
44.5 32.6 8.68 145 139 115
44.4 32.6 8.68 143 137 115
44.3 32.6 8.643 141 135 113
44.2 32.6 8.643 137 130 111
44.1 32.6 8.595 134 127 108
44 32.6 8.548 131 124 106
43.9 32.6 8.51 130 123 107
43.8 32.6 8.448 139 132 116
43.7 32.6 8.405 138 130 117
43.6 32.6 8.39 139 131 120
43.5 32.6 8.367 140 132 121
43.4 32.6 8.367 141 132 123
43.3 32.6 8.319 138 129 120
43.2 32.6 8.319 132 123 114
43.1 32.6 8.262 127 118 109
43 32.6 8.199 142 134 121
42.9 32.6 8.199 144 137 121
42.8 32.6 8.175 145 137 124
42.7 32.6 8.158 143 135 122
42.6 32.6 8.119 142 134 121
42.5 32.6 8.048 143 137 123
42.4 32.6 8.024 144 138 124
42.3 32.6 7.976 142 138 126
42.2 32.6 7.921 132 128 116
42.1 32.6 7.881 132 130 117
42 32.6 7.866 137 135 122
41.9 32.6 7.819 144 142 129
41.8 32.6 7.819 146 147 133
41.7 32.6 7.779 145 146 132
41.6 32.6 7.779 141 142 128
41.5 32.6 7.731 139 139 127
41.4 32.6 7.731 147 147 137
41.3 32.6 7.731 130 130 120
41.2 32.6 7.69 117 114 105
41.1 32.6 7.69 125 122 113
41 32.6 7.649 143 140 131
40.9 32.6 7.649 142 139 130
40.8 32.6 7.589 132 130 118
40.7 32.6 7.548 132 128 117
40.6 32.6 7.482 141 137 126
40.5 32.6 7.482 144 137 127
40.4 32.6 7.447 146 139 129
40.3 32.6 7.447 147 141 129
40.2 32.6 7.405 148 139 130
40.1 32.6 7.405 147 139 128
40 32.6 7.352 145 136 127
39.9 32.6 7.262 144 136 125
39.8 32.6 7.252 154 146 135
39.7 32.6 7.209 166 158 147
39.6 32.6 7.19 149 141 130
39.5 32.6 7.167 134 126 115
39.4 32.6 7.167 146 138 127
39.3 32.6 7.11 146 138 127
39.2 32.6 7.11 136 128 115
39.1 32.6 7.067 143 137 123
39 32.6 7.02 130 124 110
38.9 32.6 6.972 113 107 93
38.8 32.6 6.972 108 102 88
38.7 32.6 6.949 111 108 91
38.6 32.6 6.945 99 93 79
38.5 32.6 6.945 64 61 44
38.4 32.6 6.877 48 42 28
38.3 32.6 6.783 51 45 29
38.2 32.6 6.783 50 44 28
38.1 32.6 6.762 86 80 64
38 32.6 6.741 119 112 96
37.9 32.6 6.711 146 140 124
37.8 32.6 6.688 172 165 149
37.7 32.6 6.64 168 161 145
37.6 32.6 6.64 155 147 134
37.5 32.6 6.612 158 150 137
37.4 32.6 6.591 154 146 133
37.3 32.6 6.522 160 152 139
37.2 32.6 6.522 161 153 142
37.1 32.6 6.518 151 143 132
37 32.6 6.518 146 136 126
36.9 32.6 6.471 150 140 130
36.8 32.6 6.402 106 96 87
36.7 32.6 6.356 132 122 113
36.6 32.6 6.356 159 150 143
36.5 32.6 6.308 160 151 144
36.4 32.6 6.286 167 158 151
36.3 32.6 6.239 175 166 159
36.2 32.6 6.214 172 163 156
36.1 32.6 6.19 163 154 147
36 32.6 6.19 163 154 145
35.9 32.6 6.142 171 162 153
35.8 32.6 6.119 170 161 152
35.7 32.6 6.048 172 163 154
35.6 32.6 6.048 173 163 154
35.5 32.6 6.024 172 162 153
35.4 32.6 6.024 173 163 154
35.3 32.6 5.976 174 164 155
35.2 32.6 5.976 170 160 151
35.1 32.6 5.929 163 154 147
35 32.6 5.929 171 166 160
34.9 32.6 5.905 174 171 166
34.8 32.6 5.905 191 188 183
34.7 32.6 5.882 198 197 192
34.6 32.6 5.881 196 193 188
34.5 32.6 5.857 192 191 186
34.4 32.6 5.857 171 170 165
34.3 32.6 5.81 132 131 126
34.2 32.6 5.81 122 121 116
34.1 32.6 5.81 115 114 109
34 32.6 5.738 111 110 105
33.9 32.6 5.738 111 110 105
33.8 32.6 5.738 105 104 99
33.7 32.6 5.738 98 99 93
33.6 32.6 5.69 107 106 101
33.5 32.6 5.688 121 120 115
33.4 32.6 5.687 144 144 136
33.3 32.6 5.687 153 153 143
33.2 32.6 5.687 163 163 153
33.1 32.6 5.614 168 168 158
33 32.6 5.614 168 165 156
32.9 32.6 5.568 165 162 153
32.8 32.6 5.568 165 162 153
32.7 32.6 5.565 167 165 153
32.6 32.6 5.496 168 165 156
32.5 32.6 5.496 171 169 157
32.4 32.6 5.45 172 168 157
32.3 32.6 5.405 167 165 153
32.2 32.6 5.405 167 163 152
32.1 32.6 5.4 167 165 153
32 32.6 5.4 167 163 152
31.9 32.6 5.362 165 161 150
31.8 32.6 5.362 160 156 145
31.7 32.6 5.333 167 163 152
31.6 32.6 5.333 169 165 156
31.5 32.6 5.312 164 160 149
31.4 32.6 5.312 162 158 149
31.3 32.6 5.312 165 161 152
31.2 32.6 5.312 164 160 151
31.1 32.6 5.286 159 155 146
31 32.6 5.286 158 155 146
30.9 32.6 5.241 153 150 141
30.8 32.6 5.241 142 139 130
30.7 32.6 5.214 101 98 89
30.6 32.6 5.214 87 87 77
30.5 32.6 5.19 125 125 115
30.4 32.6 5.19 152 152 142
30.3 32.6 5.143 159 159 151
30.2 32.6 5.079 178 179 173
30.1 32.6 5.079 175 178 171
30 32.6 5.079 160 161 156
29.9 32.6 5.075 149 150 144
29.8 32.6 5.075 155 156 150
29.7 32.6 5.028 157 158 150
29.6 32.6 5.028 147 148 140
29.5 32.6 5.02 139 140 132
29.4 32.6 5.024 142 142 134
29.3 32.6 4.957 146 146 136
29.2 32.6 4.957 148 148 138
29.1 32.6 4.957 145 145 135
29 32.6 4.957 141 139 127
28.9 32.6 4.957 137 135 123
28.8 32.6 4.909 137 135 123
28.7 32.6 4.905 138 134 123
28.6 32.6 4.905 138 132 120
28.5 32.6 4.857 138 132 120
28.4 32.6 4.876 138 130 119
28.3 32.6 4.857 138 130 119
28.2 32.6 4.857 138 130 119
28.1 32.6 4.857 139 131 120
28 32.6 4.857 140 132 121
27.9 32.6 4.786 140 132 121
27.8 32.6 4.786 143 135 124
27.7 32.6 4.786 141 133 122
27.6 32.6 4.786 138 130 119
27.5 32.6 4.709 135 127 116
27.4 32.6 4.752 133 125 114
27.3 32.6 4.709 132 124 113
27.2 32.6 4.709 132 124 113
27.1 32.6 4.672 133 123 113
27 32.6 4.682 132 122 113
26.9 32.6 4.682 133 123 114
26.8 32.6 4.682 134 124 115
26.7 32.6 4.672 135 126 117
26.6 32.6 4.672 139 130 123
26.5 32.6 4.672 140 133 125
26.4 32.6 4.672 140 133 125
26.3 32.6 4.69 137 133 124
26.2 32.6 4.643 137 132 126
26.1 32.6 4.643 127 124 117
26 32.6 4.643 108 108 100
25.9 32.6 4.643 93 93 85
25.8 32.6 4.643 92 91 86
25.7 32.6 4.632 100 99 94
51.2 32.5 7 100 99 94
51.1 32.5 13.016 240 191 37
51 32.5 12.988 172 144 61
50.9 32.5 12.918 148 133 94
50.8 32.5 12.78 159 145 119
50.7 32.5 12.593 157 148 133
50.6 32.5 12.472 120 116 107
50.5 32.5 12.332 77 74 67
50.4 32.5 12.167 73 73 61
50.3 32.5 12.119 119 120 104
50.2 32.5 12.047 98 96 81
50.1 32.5 12 66 63 48
50 32.5 12.047 58 49 40
49.9 32.5 12.095 108 99 92
49.8 32.5 12.095 148 137 131
49.7 32.5 12.142 143 133 123
49.6 32.5 12.048 142 134 115
49.5 32.5 11.857 141 133 112
49.4 32.5 11.715 151 143 124
49.3 32.5 11.715 144 135 118
49.2 32.5 11.69 115 103 87
49.1 32.5 11.573 107 98 81
49 32.5 11.548 108 96 80
48.9 32.5 11.431 113 104 87
48.8 32.5 11.357 128 119 102
48.7 32.5 11.289 106 97 80
48.6 32.5 11.197 142 133 116
48.5 32.5 11.119 122 113 96
48.4 32.5 11.004 109 100 83
48.3 32.5 10.976 93 84 67
48.2 32.5 10.885 103 94 77
48.1 32.5 10.857 139 130 113
48 32.5 10.743 151 142 125
47.9 32.5 10.601 149 142 126
47.8 32.5 10.53 121 113 100
47.7 32.5 10.488 62 56 42
47.6 32.5 10.482 123 115 102
47.5 32.5 10.394 132 126 112
47.4 32.5 10.34 104 98 84
47.3 32.5 10.292 105 99 85
47.2 32.5 10.181 100 94 80
47.1 32.5 10.126 159 153 137
47 32.5 10.039 122 116 102
46.9 32.5 9.945 123 117 101
46.8 32.5 9.906 126 119 103
46.7 32.5 9.859 125 118 102
46.6 32.5 9.788 120 113 97
46.5 32.5 9.771 118 111 95
46.4 32.5 9.661 129 122 106
46.3 32.5 9.581 143 134 119
46.2 32.5 9.5 164 155 138
46.1 32.5 9.472 163 154 137
46 32.5 9.439 162 153 136
45.9 32.5 9.415 161 152 135
45.8 32.5 9.357 159 150 133
45.7 32.5 9.249 154 145 128
45.6 32.5 9.214 151 142 125
45.5 32.5 9.108 151 142 125
45.4 32.5 9.084 152 143 126
45.3 32.5 9 153 144 127
45.2 32.5 8.976 152 143 126
45.1 32.5 8.87 149 140 123
45 32.5 8.833 147 138 121
44.9 32.5 8.833 148 139 122
44.8 32.5 8.786 148 139 122
44.7 32.5 8.68 146 137 120
44.6 32.5 8.68 140 131 114
44.5 32.5 8.643 143 134 117
44.4 32.5 8.643 146 137 120
44.3 32.5 8.606 145 136 119
44.2 32.5 8.544 139 132 114
44.1 32.5 8.548 136 129 113
44 32.5 8.51 137 130 114
43.9 32.5 8.51 140 132 119
43.8 32.5 8.448 140 134 120
43.7 32.5 8.405 142 136 122
43.6 32.5 8.367 141 135 123
43.5 32.5 8.319 138 132 120
43.4 32.5 8.319 140 134 122
43.3 32.5 8.319 142 136 124
43.2 32.5 8.28 139 133 121
43.1 32.5 8.199 134 126 115
43 32.5 8.175 134 126 115
42.9 32.5 8.158 143 133 121
42.8 32.5 8.119 144 136 125
42.7 32.5 8.119 143 135 124
42.6 32.5 8.071 146 140 128
42.5 32.5 8.056 145 141 129
42.4 32.5 8.008 142 140 127
42.3 32.5 7.976 139 139 127
42.2 32.5 7.936 128 128 116
42.1 32.5 7.896 123 123 111
42 32.5 7.881 123 123 113
41.9 32.5 7.833 114 114 104
41.8 32.5 7.833 139 136 127
41.7 32.5 7.793 139 136 127
41.6 32.5 7.779 149 146 139
41.5 32.5 7.731 144 144 136
41.4 32.5 7.677 119 119 109
41.3 32.5 7.643 112 112 102
41.2 32.5 7.636 117 117 107
41.1 32.5 7.654 134 134 124
41 32.5 7.589 145 142 133
40.9 32.5 7.589 139 136 127
40.8 32.5 7.535 138 134 125
40.7 32.5 7.47 143 139 130
40.6 32.5 7.447 143 136 128
40.5 32.5 7.447 146 137 130
40.4 32.5 7.399 150 141 134
40.3 32.5 7.399 151 142 133
40.2 32.5 7.333 147 136 130
40.1 32.5 7.333 141 131 122
40 32.5 7.333 142 131 125
39.9 32.5 7.262 148 138 129
39.8 32.5 7.219 145 137 126
39.7 32.5 7.209 137 131 119
39.6 32.5 7.209 144 138 126
39.5 32.5 7.167 143 137 125
39.4 32.5 7.167 142 136 124
39.3 32.5 7.119 144 138 126
39.2 32.5 7.076 138 132 120
39.1 32.5 7.02 145 141 129
39 32.5 7.02 131 127 115
38.9 32.5 6.976 95 91 79
38.8 32.5 6.932 65 61 49
38.7 32.5 6.877 55 53 38
38.6 32.5 6.877 45 41 29
38.5 32.5 6.877 44 42 27
38.4 32.5 6.877 56 52 40
38.3 32.5 6.783 45 42 27
38.2 32.5 6.738 45 42 27
38.1 32.5 6.738 71 68 53
38 32.5 6.738 94 88 74
37.9 32.5 6.709 101 98 83
37.8 32.5 6.709 119 113 99
37.7 32.5 6.64 146 140 126
37.6 32.5 6.595 161 155 143
37.5 32.5 6.543 161 155 143
37.4 32.5 6.543 156 150 138
37.3 32.5 6.498 161 155 143
37.2 32.5 6.498 156 150 138
37.1 32.5 6.449 142 136 124
37 32.5 6.449 170 164 152
36.9 32.5 6.402 155 149 137
36.8 32.5 6.379 143 137 125
36.7 32.5 6.359 163 157 145
36.6 32.5 6.288 162 153 144
36.5 32.5 6.308 164 155 146
36.4 32.5 6.286 166 157 148
36.3 32.5 6.237 168 159 150
36.2 32.5 6.236 169 160 151
36.1 32.5 6.213 169 160 151
36 32.5 6.188 169 160 151
35.9 32.5 6.141 169 160 151
35.8 32.5 6.141 170 161 152
35.7 32.5 6.071 170 161 152
35.6 32.5 6.071 169 160 151
35.5 32.5 6.024 168 159 150
35.4 32.5 6.024 170 161 152
35.3 32.5 5.976 172 163 154
35.2 32.5 5.976 172 163 154
35.1 32.5 5.929 170 161 154
35 32.5 5.929 169 162 156
34.9 32.5 5.929 184 179 173
34.8 32.5 5.929 193 188 182
34.7 32.5 5.882 195 192 185
34.6 32.5 5.881 200 195 189
34.5 32.5 5.811 187 184 177
34.4 32.5 5.81 160 157 152
34.3 32.5 5.739 141 138 133
34.2 32.5 5.739 135 134 129
34.1 32.5 5.739 131 130 125
34 32.5 5.69 120 121 116
33.9 32.5 5.69 108 109 104
33.8 32.5 5.69 100 101 96
33.7 32.5 5.69 101 103 98
33.6 32.5 5.688 111 112 107
33.5 32.5 5.688 119 120 114
33.4 32.5 5.735 106 106 98
33.3 32.5 5.687 119 119 111
33.2 32.5 5.687 135 135 127
33.1 32.5 5.618 148 148 140
33 32.5 5.618 160 160 152
32.9 32.5 5.571 169 169 161
32.8 32.5 5.528 170 170 162
32.7 32.5 5.5 165 165 155
32.6 32.5 5.478 165 165 157
32.5 32.5 5.433 164 164 154
32.4 32.5 5.433 166 163 154
32.3 32.5 5.362 165 165 155
32.2 32.5 5.362 168 165 156
32.1 32.5 5.318 166 166 156
32 32.5 5.318 167 164 155
31.9 32.5 5.333 166 163 154
31.8 32.5 5.4 164 160 151
31.7 32.5 5.333 162 158 149
31.6 32.5 5.333 161 156 150
31.5 32.5 5.333 164 160 151
31.4 32.5 5.333 166 161 155
31.3 32.5 5.286 166 161 155
31.2 32.5 5.286 164 161 154
31.1 32.5 5.244 163 160 153
31 32.5 5.244 164 161 154
30.9 32.5 5.194 161 158 151
30.8 32.5 5.194 122 121 116
30.7 32.5 5.194 87 86 81
30.6 32.5 5.194 123 122 117
30.5 32.5 5.146 136 135 130
30.4 32.5 5.146 149 148 143
30.3 32.5 5.079 146 145 140
30.2 32.5 5.055 175 176 170
30.1 32.5 5.035 165 166 158
30 32.5 5.035 155 156 150
